# .PCD v0.7 - Point Cloud Data file format
VERSION 0.7
FIELDS x y z rgba
SIZE 4 4 4 4
TYPE F F F U
COUNT 1 1 1 1
WIDTH 756
HEIGHT 1
VIEWPOINT 0 0 0 1 0 0 0
POINTS 756
DATA ascii
-1020.5863 -156.84236 44.76355 4282332972
-1018.2401 -150.53128 44.135643 4283648847
-959.73395 -151.73575 43.566513 4281806883
-1017.8075 -149.82004 43.161224 4283779659
-1016.9243 -149.06169 43.66272 4283976780
-971.11975 -135.54111 43.792961 4281215503
-1020.5604 -155.29893 45.774109 4282465349
-958.48938 -155.31776 47.289673 4282002688
-957.44476 -156.58612 46.883484 4281607963
-1020.5675 -154.95857 45.792969 4282202695
-959.10352 -154.03697 46.30098 4281608734
-1018.718 -151.25623 46.601517 4283387471
-1017.1343 -150.35565 46.675671 4283846483
-961.09894 -151.79778 46.914001 4282003477
-1016.8676 -149.6844 45.748516 4284371280
-962.86041 -148.72498 47.225204 4281281052
-961.99548 -149.69002 47.290039 4280953381
-1014.7105 -146.69664 45.340454 4283256920
-964.78241 -145.86726 46.808716 4281149203
-965.82104 -144.7077 47.444885 4281279015
-967.92273 -141.39868 47.448059 4281216546
-967.22729 -142.32874 47.059479 4280952868
-970.35992 -138.13208 47.33905 4281411617
-968.97217 -139.85497 47.049683 4280822302
-971.53137 -135.97835 46.298901 4281281829
-973.69971 -132.74333 46.454895 4281543195
-972.46185 -134.78911 47.466187 4281477399
-974.21991 -131.89893 47.122089 4281608462
-976.48242 -128.97359 46.978745 4281083431
-978.05267 -126.55731 47.360962 4281867300
-1016.946 -160.43379 47.56543 4282532421
-956.40503 -158.70929 49.209442 4281215777
-958.46094 -155.60785 48.881004 4281937435
-957.45178 -157.00119 48.851486 4281673758
-1018.2973 -152.62672 49.779205 4283518285
-960.33313 -152.71959 49.390518 4281806620
-959.20282 -154.0634 48.52179 4281740330
-1018.391 -151.89511 48.428516 4283584080
-1016.9778 -150.88705 49.099354 4283453521
-961.33624 -151.46037 48.770607 4281871125
-1016.4814 -149.26218 48.675262 4283912530
-963.10077 -148.69041 48.733215 4281804054
-962.26624 -149.79889 48.543774 4281412113
-965.25995 -145.64322 49.25106 4281083685
-964.48535 -146.62196 48.811176 4281214493
-966.59076 -143.65211 48.995029 4281411103
-968.16058 -141.32701 48.896008 4281149716
-970.28271 -138.16922 49.097595 4281213472
-969.65826 -138.99284 48.979389 4280820506
-971.4751 -136.1832 48.955364 4281214499
-973.62408 -133.16061 49.045395 4281346059
-972.45306 -134.92793 48.159607 4282001438
-974.54449 -131.67639 48.883728 4281213717
-976.52673 -129.03119 48.751137 4281018645
-978.79614 -125.92999 48.729324 4281083167
-1015.3736 -160.33875 51.462196 4282861382
-956.22479 -161.5927 52.03307 4281215258
-1015.8134 -158.69745 51.39016 4282992706
-1014.402 -159.3278 51.263863 4282664772
-956.22455 -159.14502 51.367329 4281346324
-1017.9193 -156.01045 52.09771 4282861387
-1016.7007 -156.37553 52.129673 4283254855
-958.38129 -156.05307 51.403446 4281675038
-957.47217 -157.17281 51.594086 4281542939
-1018.4252 -153.5128 51.45274 4283321163
-1016.9374 -153.85535 51.701382 4283124041
-960.49792 -152.86295 51.642769 4281741081
-959.49951 -154.18246 51.486435 4281675288
-1016.7254 -151.69438 50.739571 4283256399
-961.71655 -151.06494 51.439251 4281608210
-963.45959 -148.43861 51.413162 4281870368
-965.39661 -145.57248 51.581921 4281476899
-964.42249 -147.00894 51.209602 4281412641
-967.5434 -142.67801 52.312195 4281479981
-966.61792 -144.04973 51.335453 4281543452
-968.46155 -141.25931 51.627544 4281608984
-970.50519 -138.18587 51.319016 4281281041
-969.81104 -139.12589 51.479042 4281084448
-971.67328 -136.24716 51.526474 4281411874
-973.49896 -133.69812 51.446022 4281544224
-975.43781 -130.75877 51.202404 4280886561
-974.70844 -131.8271 51.274712 4281346599
-976.59235 -129.14429 51.40715 4281018387
-978.78265 -126.21858 51.1092 4281019175
-957.79797 -160.98505 53.459709 4281346070
-956.5155 -160.85963 53.25753 4281018127
-958.13593 -158.6299 53.731724 4281348906
-956.8623 -159.1523 53.553787 4281345554
-958.64868 -156.29135 53.770653 4282005036
-957.48029 -157.38321 53.087524 4280822536
-960.59283 -153.31693 53.636784 4282268209
-959.7085 -154.36464 53.718269 4282070316
-962.67078 -150.34451 53.422462 4282268730
-961.83063 -151.41429 53.649971 4281874478
-963.56671 -148.79909 53.77198 4282136366
-965.68915 -145.73155 54.067215 4282267958
-964.67181 -147.15112 53.015823 4281676595
-967.66296 -143.07399 54.070873 4282729017
-966.69562 -144.38046 53.876186 4282268468
-968.75739 -141.54921 53.887859 4282794041
-970.7157 -138.62004 53.518635 4282466619
-969.79114 -139.50281 53.674179 4282136624
-972.89484 -135.46692 54.095764 4282729532
-971.7262 -136.60481 53.479309 4282398772
-975.13373 -132.61258 54.370483 4283452745
-973.84259 -133.8241 53.568233 4282466363
-975.7525 -131.08012 54.044979 4282729021
-974.71356 -132.1992 52.985474 4281874479
-978.25177 -127.99844 54.495377 4283255112
-976.86151 -129.21645 54.069164 4282465594
-978.74493 -126.52826 53.744358 4282335800
-958.68262 -158.35178 56.460033 4282467649
-960.23114 -155.26018 57.348663 4283780170
-959.3902 -156.14409 56.132675 4283255370
-961.11597 -153.40642 56.104763 4283189324
-959.82117 -154.61212 55.554474 4282728517
-962.9516 -150.51611 55.891674 4282731333
-962.14374 -151.7397 55.949799 4282927949
-963.68628 -149.03958 56.3564 4283123527
-966.12268 -145.84924 56.227375 4283123782
-967.91473 -143.36768 56.961121 4283320903
-966.93091 -144.62524 55.96357 4283189578
-970.25427 -140.22719 57.31839 4282928718
-969.19659 -141.49783 56.374233 4283320646
-970.99219 -138.7243 56.573475 4283124039
-969.81201 -139.61943 55.732067 4282926145
-973.30676 -135.65427 56.090797 4283583049
-971.7951 -136.70573 55.832031 4283451210
-975.1076 -133.07883 55.70874 4283320899
-974.15552 -133.90637 56.32645 4283320907
-976.2923 -130.8588 56.094597 4283320648
-978.03461 -128.0894 56.621384 4283451722
-977.08148 -129.43457 56.202068 4283189059
-978.92102 -126.74921 56.48925 4283321162
-958.47235 -159.53859 58.98885 4282335031
-960.37323 -155.35081 59.336559 4283452747
-959.63062 -156.36778 58.758305 4283255885
-961.15472 -153.67316 58.626404 4283386445
-963.11731 -150.85904 58.778423 4283321163
-964.0127 -149.16965 59.08968 4283124297
-966.41699 -145.95245 58.850658 4283321416
-968.19299 -143.84015 58.882614 4283321163
-967.31073 -144.79724 58.069256 4283124555
-970.21173 -141.47685 59.307514 4283452488
-969.60181 -141.72118 58.385036 4283320907
-971.52032 -138.48735 58.533283 4283190349
-973.54724 -135.99271 58.962013 4283256141
-971.98932 -136.99863 58.642601 4283124807
-975.28595 -133.48544 58.763275 4283189323
-974.20117 -134.31915 58.168266 4283452494
-976.27563 -131.05351 58.567745 4283451975
-985.42426 -129.75653 59.928345 4283716427
-978.33337 -128.34381 58.683342 4283648839
-977.28333 -129.65817 59.001122 4283058502
-979.33679 -127.13471 58.570831 4283518539
-958.46625 -160.17372 60.304962 4282138680
-959.18823 -158.16052 61.413506 4282992965
-960.552 -155.72731 61.448566 4283387469
-959.65503 -157.05415 60.993618 4283255630
-962.63898 -152.6501 61.892963 4283452748
-961.55585 -153.72701 60.981434 4283387209
-963.45563 -151.21394 61.262173 4283386443
-964.50372 -148.96208 61.28299 4283190605
-1010.7809 -146.98351 62.029846 4282534209
-967.79218 -145.06972 61.862122 4283387204
-967.0105 -146.22226 61.157986 4283255884
-1005.7716 -143.58698 61.454327 4283125580
-1004.6877 -142.63042 62.306519 4283255629
-970.17633 -142.69756 60.10144 4283584071
-968.92542 -143.57811 61.434551 4283386697
-1002.7748 -141.63951 62.423157 4283124304
-1000.8452 -140.24135 61.869034 4283582800
-970.59613 -141.09575 61.467163 4283518027
-969.35284 -142.40767 60.737274 4283582544
-1000.3386 -139.92401 62.304626 4283320654
-998.55457 -138.6601 62.149551 4283190351
-971.8111 -138.89751 61.357895 4283255882
-995.96497 -136.85745 61.74527 4283190094
-994.81348 -136.14578 62.038208 4283845966
-973.77875 -136.34825 61.426582 4283190091
-972.29968 -137.32323 60.405731 4283649100
-992.52222 -134.63174 62.417725 4283649357
-975.57263 -133.54976 61.139034 4283124554
-974.51849 -134.49606 61.022045 4283190605
-987.76019 -131.47429 62.009827 4283322191
-986.46484 -130.46918 61.884785 4283321933
-976.63428 -131.25058 60.752846 4283255627
-985.39111 -129.63899 61.538918 4283191116
-978.73322 -128.68924 61.356857 4283255630
-977.45984 -129.84291 60.346985 4283385933
-979.7854 -127.06208 60.916576 4283452742
-968.4967 -168.65926 64.614136 4283125577
-959.48938 -158.37961 63.988876 4283517770
-960.85791 -156.15007 63.591084 4283714378
-959.88953 -157.15747 63.592987 4283713615
-962.87775 -152.75394 63.671421 4283190344
-961.68585 -154.03357 63.740837 4283190085
-963.84888 -151.26247 63.806931 4283058765
-1013.4567 -149.00478 63.850456 4283059019
-1011.7684 -148.11299 64.284828 4282796615
-1000.5266 -148.45062 64.645416 4282992452
-966.21326 -147.9744 64.481071 4283256141
-964.70038 -149.65005 62.92038 4282993736
-1010.4538 -146.99864 63.516159 4282992967
-1008.951 -145.7529 64.057823 4283189577
-968.03918 -145.82597 63.880745 4283255369
-967.02905 -146.95428 63.484146 4283517773
-1006.0133 -144.04739 63.757195 4283452236
-1004.5441 -142.92572 63.791702 4283386704
-970.62048 -142.98531 63.831367 4283518027
-969.32477 -144.07948 63.693909 4283386696
-1003.4086 -142.00775 63.810795 4283190350
-1001.156 -140.75957 64.050995 4283386445
-999.59985 -140.03053 64.166382 4283713613
-971.11169 -141.5004 63.730183 4283386955
-998.88373 -139.05154 63.786755 4283255372
-996.91431 -137.95595 63.733345 4282731597
-973.20007 -138.21124 64.258286 4283518288
-971.80414 -139.47607 64.160812 4282928709
-995.47809 -136.91542 63.8036 4283255630
-993.89392 -135.74129 63.779259 4283386960
-992.45294 -135.09383 64.274292 4283976524
-975.26849 -136.10474 64.338326 4282993998
-974.15942 -136.86862 63.743122 4283255885
-992.82666 -134.7664 63.14621 4283584338
-991.72064 -134.50117 64.032768 4283386705
-989.81171 -132.93018 63.866905 4283387210
-975.91724 -134.00597 63.95937 4283452497
-974.98657 -134.91359 62.704163 4282993479
-988.51917 -131.98814 63.849686 4283387471
-986.33881 -130.70203 63.945591 4283387214
-978.01349 -130.6729 64.109169 4283583567
-976.84467 -131.67004 63.676758 4283451981
-985.02393 -129.68939 63.103149 4283517780
-983.77911 -128.65665 63.851868 4283649612
-982.08374 -127.73994 63.982597 4283256142
-979.02399 -129.19769 63.866673 4283386700
-980.64844 -127.23485 63.773083 4283321676
-991.10681 -182.83334 66.787254 4283124046
-989.88824 -182.66924 65.785339 4282993481
-993.30396 -180.62759 67.140022 4283124038
-991.36707 -181.7549 67.065376 4283189320
-989.55975 -182.20256 66.143677 4283320649
-995.35669 -177.91115 66.929207 4282926665
-994.32477 -178.49623 67.177017 4282861645
-991.18793 -178.451 67.202103 4283058250
-989.9455 -178.60985 67.313438 4282795343
-985.31165 -178.09662 67.156998 4283582280
-984.01349 -178.03374 66.995461 4282993224
-996.33728 -176.1584 66.924263 4282796356
-994.70477 -176.67931 67.292702 4282862151
-991.79242 -176.76447 67.07692 4283057991
-985.73914 -176.94316 67.362717 4282599755
-984.70819 -177.26723 67.464233 4283320387
-981.7785 -176.28188 67.117737 4283255618
-979.02295 -175.08482 66.426636 4282664772
-998.11761 -173.20018 67.073181 4282992710
-996.49133 -173.45634 66.73201 4282861642
-993.57703 -172.77885 67.131157 4282992710
-991.49536 -172.89996 67.102745 4282730311
-988.7348 -172.9752 67.285339 4282927177
-985.90375 -173.52327 67.313126 4282992716
-983.70428 -172.79149 67.215981 4282730832
-982.19556 -172.76952 67.182281 4282927941
-978.48413 -174.66777 66.457451 4282861630
-1000.3452 -170.52956 67.013481 4282861131
-998.71497 -171.31366 66.957733 4282795848
-996.20947 -171.43318 66.567711 4283189063
-993.75214 -171.16338 67.021461 4282992711
-991.4021 -171.31363 66.909798 4282992712
-988.71985 -171.23817 67.302299 4282992714
-986.24359 -171.21796 67.020401 4282992714
-983.6897 -171.33803 67.015015 4282861897
-981.37109 -170.93837 67.176346 4282992970
-978.48016 -170.87233 67.37587 4282795850
-976.11377 -170.60873 67.302803 4283058505
-974.19525 -170.82292 67.22374 4282993224
-972.05841 -170.50005 66.826782 4282927432
-1000.9133 -168.66013 66.832344 4282730052
-998.72437 -168.70633 66.777618 4282926922
-996.21851 -168.6499 66.568939 4282861128
-993.72009 -168.57024 67.095253 4282927177
-991.43915 -168.58699 66.898422 4282795849
-988.68689 -168.61073 66.993813 4283058250
-986.2525 -168.69412 67.027733 4283058251
-983.81287 -168.34509 66.962547 4283189576
-981.1601 -168.41235 67.06321 4282861642
-978.69452 -168.18849 67.063957 4283189320
-976.08716 -169.01472 67.298935 4282993226
-973.96826 -168.70804 67.158073 4283124043
-971.72186 -168.52756 66.85553 4283189834
-969.12738 -167.97597 66.679611 4283386698
-1003.226 -166.07542 66.874565 4282860866
-1001.7308 -166.7222 67.145226 4282926661
-998.4834 -166.62404 66.645264 4282861385
-996.44153 -166.93617 66.246735 4282926669
-993.60638 -166.81702 66.899193 4282861384
-991.09644 -166.60663 66.332726 4282926664
-988.70551 -166.4651 66.749298 4282926665
-986.30438 -166.74663 66.543236 4282992716
-983.76086 -166.75681 66.53952 4282796620
-981.21326 -166.63565 66.460312 4282861901
-978.66528 -166.52452 66.808456 4282861896
-976.28406 -166.3203 67.369347 4282992969
-973.74634 -166.18835 66.9776 4282993227
-971.32129 -166.03453 67.031311 4283189581
-969.00574 -165.7807 67.034454 4283058768
-966.71533 -165.08455 67.459785 4282993489
-1005.5178 -162.93065 66.78495 4282467911
-1003.6314 -163.38919 67.078506 4282664518
-994.63049 -162.58015 67.293762 4282730562
-970.88171 -164.97467 67.229088 4283058246
-968.38037 -164.81313 67.003914 4282861902
-966.05328 -164.51483 67.197906 4283059021
-963.99005 -164.58287 67.089798 4283059791
-961.71863 -163.48669 67.049805 4283255625
-1007.5837 -160.17293 66.407288 4282992706
-1006.0397 -161.04088 66.336235 4282664518
-1003.7714 -161.32634 66.174072 4282730051
-1001.3265 -160.98236 66.414444 4282795589
-998.83044 -160.94127 66.474426 4282926663
-996.20111 -160.86205 66.631432 4282926921
-993.7627 -160.90791 66.846512 4282861128
-991.33466 -160.80536 66.751732 4282861642
-988.901 -160.29276 66.736786 4282796360
-985.99969 -160.8503 66.764832 4282992969
-983.93854 -160.66197 67.107704 4282927178
-981.24634 -160.47925 67.322395 4282861897
-978.83746 -160.53296 67.385452 4282992967
-976.18683 -160.81854 67.387894 4282861643
-974.56482 -161.12581 67.284554 4283058249
-959.60327 -160.6982 67.431374 4282731856
-1008.1888 -158.32874 66.77195 4282926405
-1006.4431 -158.94722 66.879951 4282992201
-1003.6656 -158.89732 66.770012 4282992199
-1001.2921 -158.9489 66.753181 4282795844
-998.62811 -159.27188 66.420959 4282664776
-996.30817 -159.32738 66.502174 4282926666
-993.70508 -159.36266 66.491028 4282664776
-991.31 -159.27414 65.837494 4282861638
-988.74292 -159.19174 66.420334 4282927177
-986.22839 -159.03224 66.470398 4283058250
-983.55554 -158.98476 66.73349 4282861388
-981.24316 -158.94167 66.527771 4283058251
-978.79938 -158.85599 66.915619 4282861641
-976.2489 -158.86713 67.08287 4282927179
-973.98962 -158.61092 66.96199 4282992975
-971.10815 -158.39256 66.863197 4283189837
-968.83881 -158.0087 66.861351 4283190091
-966.50128 -157.85472 66.710999 4283124043
-963.80585 -157.9846 67.006073 4283189574
-960.52087 -158.03313 66.815742 4283583820
-959.73065 -158.91524 66.417503 4283386960
-1010.6691 -155.30974 66.503151 4282402374
-1008.8106 -156.25204 66.972496 4282861127
-1006.3036 -155.89355 66.936943 4282730054
-1003.6262 -156.18694 66.952286 4282795849
-1001.7523 -156.08089 67.227654 4282730569
-999.1394 -155.98332 67.383644 4282599497
-995.91919 -155.51935 66.905518 4282664523
-993.59753 -155.7314 66.893356 4282730058
-991.34918 -155.46559 67.168327 4282861642
-989.3551 -155.3356 67.038742 4282796106
-983.78094 -156.31256 67.281982 4282992715
-981.58496 -156.94901 67.075439 4282861385
-979.79681 -157.31596 66.887787 4283779143
-973.37848 -157.3378 67.251259 4282993487
-971.24658 -157.19026 67.128174 4282992975
-968.70667 -157.18629 66.896782 4283190095
-965.9021 -156.94525 66.905334 4283124042
-963.41516 -156.83417 67.064636 4283190347
-961.38934 -156.37784 66.370628 4283583566
-1012.7374 -152.75124 66.048706 4282993224
-1010.9586 -153.50874 66.835007 4282926665
-1008.6927 -154.01584 67.072075 4282992454
-1006.3212 -153.84386 67.014 4282992456
-1003.4536 -152.65208 67.04895 4282991430
-1000.8155 -154.20149 67.416 4282861383
-998.32965 -154.29897 67.403854 4282926662
-996.19672 -154.36212 67.282906 4282861636
-994.36237 -154.51987 67.296761 4282926922
-991.2099 -154.72644 67.182663 4282795849
-989.42114 -154.20126 67.330475 4282927175
-984.46417 -154.47673 67.421135 4282926921
-980.58118 -153.31213 67.371628 4282992457
-978.65143 -153.90285 67.202408 4282796360
-977.25317 -153.60817 67.34375 4283517261
-967.91095 -152.71906 67.006554 4283386440
-966.39453 -153.04482 67.319176 4282927944
-963.40894 -153.11523 66.530762 4283190608
-962.1322 -154.14424 66.202957 4283320906
-1013.1771 -150.96266 66.420662 4282861386
-1011.2561 -151.12599 66.819542 4282861384
-1008.7271 -151.11261 66.966751 4282795848
-1006.5107 -150.99599 66.67897 4282927176
-1003.7858 -150.87668 66.849495 4283123528
-1001.6454 -150.64597 67.159744 4282926917
-999.88177 -150.00789 67.380737 4282992708
-993.15601 -150.58191 66.784882 4282861895
-991.65149 -150.45859 67.031425 4282927176
-989.18384 -150.01201 67.380798 4282926920
-985.88702 -150.2337 67.435577 4282665285
-983.56158 -150.26266 67.390617 4282993225
-981.28772 -150.74529 67.284149 4282992456
-979.4809 -150.0504 67.345886 4283450694
-971.755 -150.13333 67.308716 4283320656
-968.23462 -151.35161 67.136993 4283255369
-965.91241 -151.05745 66.903694 4283190092
-964.3913 -151.74472 66.433701 4283190607
-1013.2705 -149.43539 65.850708 4282927689
-1011.1893 -148.89729 66.018074 4283058505
-1008.7611 -148.77235 66.256493 4282992715
-1006.2087 -148.76224 65.917206 4282926918
-1003.7671 -148.95363 65.781235 4282861897
-1001.2936 -149.06119 65.98777 4283057994
-998.78552 -148.97729 66.216896 4282992457
-996.29889 -148.54982 66.115623 4282926922
-993.72693 -148.70018 66.258659 4282927177
-991.19904 -148.73492 66.364494 4283058504
-988.7478 -148.65587 66.744232 4282926923
-986.24579 -148.48628 66.61673 4282992968
-983.76355 -148.62265 66.909752 4282992968
-981.3786 -148.7037 66.915565 4282927433
-978.67316 -148.68721 67.255966 4282992714
-976.52551 -148.53587 67.086273 4282927177
-974.25531 -148.04549 67.167122 4283452231
-971.18103 -148.42841 67.09201 4283059021
-968.62256 -148.22835 67.187035 4283190093
-965.97083 -148.81378 66.508369 4283386698
-1010.4378 -147.40508 65.207916 4282730827
-1008.4924 -146.34264 66.372231 4283189576
-1006.308 -146.23759 66.748352 4282861641
-1003.7409 -146.20218 66.930443 4282992970
-1001.2338 -146.04955 66.843277 4282796104
-998.89624 -146.13443 67.053436 4283124040
-996.22095 -146.14035 66.500961 4282992970
-993.72205 -146.21452 66.395401 4282927433
-991.26318 -146.17711 66.777626 4282993224
-988.75128 -146.13666 66.836121 4282796618
-986.27734 -146.27084 66.582138 4282992968
-983.72174 -146.1964 66.501099 4282927178
-981.18207 -146.24582 66.294136 4283058249
-978.62756 -146.22165 66.82029 4282992969
-976.24469 -146.21552 66.863564 4282862156
-973.8429 -146.36232 66.930351 4283124556
-971.20056 -146.2742 66.762978 4283255628
-968.90826 -146.42099 66.20742 4283387468
-965.58191 -147.46436 65.932617 4283714638
-1008.0366 -144.72408 65.004578 4283385674
-1006.0335 -144.53745 66.222923 4283124045
-1003.7985 -143.80153 66.678108 4283254858
-1001.3345 -143.82729 66.825363 4283124042
-998.69165 -143.88278 66.261848 4282861640
-996.3158 -143.87454 66.073456 4283058249
-993.71643 -143.85362 66.348839 4282927436
-991.29413 -143.84009 66.753609 4283058507
-988.68695 -143.76956 66.654755 4283058251
-986.26105 -143.81458 66.198357 4283124300
-983.78027 -143.80252 65.912445 4283189579
-981.24768 -143.69221 65.818726 4282993482
-978.81439 -143.71883 66.240318 4282992969
-976.19592 -143.69768 66.341469 4283058765
-973.7052 -143.79774 66.778412 4283255626
-971.33118 -143.76468 66.604164 4283256139
-969.25238 -144.7939 65.677742 4283386955
-1003.066 -142.18187 65.871429 4283320902
-1001.109 -141.58768 66.529877 4282993227
-998.83545 -141.14493 66.562035 4283059018
-996.78894 -141.20258 66.861717 4283058761
-993.41547 -141.09402 67.379677 4283058508
-991.31348 -141.24426 67.124008 4282993227
-988.66205 -141.19582 66.978699 4283058505
-986.24835 -141.20163 67.2314 4283255628
-984.78473 -141.33089 67.171417 4282993482
-980.09552 -141.43034 66.662178 4283386701
-978.6214 -141.46985 66.561707 4283189576
-976.0705 -142.08563 65.884102 4282927695
-973.69861 -141.41812 66.67907 4283124555
-972.03754 -141.23799 65.69455 4283583822
-998.20825 -139.25516 66.221832 4283124553
-996.19702 -138.80511 66.663315 4283189834
-993.74567 -138.79074 66.472191 4283190092
-991.30737 -138.72244 66.591248 4282927433
-988.80933 -138.76605 66.699142 4283124556
-986.15607 -138.73593 66.436745 4283320909
-983.86115 -138.40347 66.687065 4283190092
-981.24878 -138.29454 66.715523 4283059017
-978.72546 -138.2515 66.76281 4282927690
-976.17175 -138.04532 66.683289 4283124557
-973.69757 -138.4438 66.767654 4283322191
-971.65448 -139.59651 65.498047 4282732359
-995.47833 -137.27345 65.916359 4283124301
-993.60968 -136.48296 66.072128 4283059019
-991.21259 -136.20615 66.18306 4283255628
-988.74689 -136.50612 65.728821 4283321163
-986.30914 -136.29356 65.879539 4283386958
-983.75641 -136.25827 66.332588 4283190093
-981.30182 -136.27283 65.959091 4283386698
-978.7677 -136.21994 65.965294 4283124553
-976.31378 -136.30336 65.5914 4283125067
-973.966 -137.47525 65.877884 4283124814
-990.70129 -134.33179 66.244278 4283387218
-988.74481 -133.73853 66.700195 4283321421
-986.18646 -134.30359 66.868813 4283583310
-983.6214 -134.37613 66.781204 4283190094
-981.20416 -134.23872 66.249306 4282993229
-978.63184 -134.09433 66.546783 4283190348
-976.79926 -133.92216 66.093178 4283386958
-988.23267 -132.13918 66.082886 4283714380
-986.10822 -131.06664 66.383186 4283321936
-983.71698 -130.85959 67.067261 4283255885
-981.31866 -131.10393 66.997917 4283255883
-978.92932 -131.09927 66.624672 4283321419
-977.10492 -132.05634 66.280098 4283255887
-983.56775 -129.24707 65.976997 4283321420
-981.12494 -128.59354 66.769142 4283518028
-979.7132 -129.22212 65.44516 4283584074
-980.85236 -127.37094 65.775383 4283452750
-992.71948 -180.72478 67.724373 4283189831
-991.22461 -181.0943 68.092972 4283057993
-988.94324 -180.5648 68.848961 4282927179
-993.44659 -178.64503 67.969879 4282927180
-991.25696 -178.93471 68.01519 4282992200
-988.66174 -178.78864 68.487778 4283123785
-986.44391 -178.07518 68.307045 4282992970
-984.36749 -177.50175 67.710571 4283124295
-995.77527 -175.63832 68.069145 4282926917
-993.49292 -176.16872 68.12336 4282796105
-991.20172 -176.20284 67.95546 4282992457
-988.81531 -176.24147 68.212921 4283255114
-986.27942 -176.10413 68.076866 4283058505
-983.68988 -176.09227 68.491676 4283189066
-981.93695 -175.49223 68.419937 4283124298
-995.70227 -174.10283 67.915726 4282926923
-993.85773 -173.92259 67.933922 4282992968
-991.14203 -173.83365 68.152084 4282926920
-988.74091 -173.81734 68.334518 4282796104
-986.33661 -173.72113 68.420418 4283058251
-983.75897 -173.97839 68.318085 4283123788
-981.27856 -173.7218 68.320175 4282927177
-978.86609 -173.21404 68.856041 4282796104
-977.23114 -173.20044 68.412125 4282992707
-998.3006 -170.64481 67.667801 4282992969
-996.4776 -170.25717 67.80191 4282993227
-990.62836 -171.42413 67.662186 4283189577
-988.80298 -171.15944 67.793129 4283189320
-986.66144 -172.26648 67.73439 4283123018
-984.85974 -171.11714 67.645996 4282796361
-980.89038 -171.94214 67.714714 4282927177
-978.94385 -171.63889 68.002663 4282730570
-976.48035 -171.59424 67.976799 4283189065
-973.85242 -170.65337 67.930664 4282862156
-972.22552 -170.06792 67.83197 4282862410
-1002.0671 -167.53798 67.664368 4282796366
-998.07556 -169.23357 67.584381 4282731595
-996.54645 -169.51698 67.641792 4282795846
-990.37817 -169.17575 67.806969 4282861387
-989.49707 -169.75348 67.776024 4282992452
-983.69385 -169.2841 67.720741 4282992969
-981.51721 -169.17798 67.632103 4282992972
-979.00824 -169.08382 67.939232 4282927177
-976.40204 -168.33835 67.82692 4283124041
-973.30457 -169.08073 67.797752 4283124043
-971.40863 -168.55846 67.781982 4283189578
-1002.9434 -165.40839 67.67189 4282533704
-1001.0579 -166.07803 67.844185 4282729798
-998.88483 -165.67262 67.840446 4282665031
-995.97266 -165.69409 67.801208 4283057737
-993.93378 -165.68637 67.889206 4283058247
-991.67725 -165.42924 68.182281 4283124041
-989.24121 -165.53682 67.899178 4282992462
-986.18848 -165.15407 68.241554 4283057988
-984.13324 -165.38756 67.843834 4283057989
-980.88782 -165.30367 68.083862 4281813843
-978.91833 -165.25423 68.015686 4282992207
-975.91229 -167.25912 67.812317 4283057991
-973.12402 -167.10834 67.701096 4283386445
-971.24695 -167.10121 67.643265 4283386188
-968.61639 -166.38269 67.793655 4283189580
-967.23474 -166.09433 68.302391 4283386701
-1005.142 -162.81017 67.828339 4282533447
-1003.8336 -163.97365 67.649307 4282664519
-1001.3132 -163.64111 68.20079 4282926919
-998.72028 -163.59862 68.202141 4282730308
-996.21802 -163.68013 68.519257 4282796103
-993.68909 -163.58012 68.690819 4282795849
-991.33624 -163.53951 68.475319 4282665031
-988.78778 -163.6937 68.604912 4282992712
-986.1488 -163.63458 68.897034 4283058506
-983.68176 -163.71512 68.466843 4282927179
-981.26648 -163.69478 68.53553 4282992715
-978.8222 -163.68607 68.587257 4282992457
-976.32043 -163.49684 69.091148 4282796361
-973.80865 -163.47011 68.803734 4283189579
-971.23962 -163.36131 68.96328 4283189580
-968.91321 -163.4464 69.160065 4283189837
-966.2243 -163.40985 68.294792 4283255372
-963.93243 -163.32599 68.482643 4283058761
-962.17181 -163.08514 68.357422 4282993485
-1005.1608 -162.24051 67.728455 4282009669
-1003.6788 -162.28728 67.697876 4282533955
-1001.0283 -161.98148 67.690178 4282795847
-998.61023 -161.86253 68.153206 4282730314
-996.19574 -161.90042 68.324524 4282861124
-993.73517 -161.84352 68.20607 4282861383
-990.93225 -161.92625 67.895386 4282665030
-988.69647 -161.50684 68.35025 4283058250
-986.56299 -161.76608 68.190193 4283123529
-983.64618 -161.74228 67.902176 4282861643
-981.31738 -161.63939 67.871063 4282927176
-978.63623 -161.38457 68.353004 4282861640
-976.27271 -161.8455 68.425049 4282926923
-973.42084 -161.40118 68.434532 4282927435
-971.23865 -161.21286 68.455223 4283189836
-968.82471 -161.27008 69.147606 4283320907
-966.17877 -161.20956 68.673439 4283124297
-963.72192 -161.24176 68.311821 4283124046
-961.51135 -161.08002 68.342934 4283124303
-959.58063 -160.61032 67.788818 4282862931
-1006.0892 -158.14236 67.831947 4282795590
-1003.8546 -158.11343 67.785591 4283057481
-1001.1801 -157.95943 67.965286 4282861383
-998.8858 -157.90387 67.985641 4282992971
-996.08466 -157.95621 68.24218 4282927173
-993.80359 -157.91365 68.257187 4282992453
-991.27472 -157.65627 68.041054 4283058498
-989.13672 -157.65195 68.051376 4282927686
-984.42401 -157.83986 67.856926 4282796617
-978.70404 -159.71512 67.979988 4282599753
-973.32098 -159.31281 67.990112 4282862154
-971.32764 -159.32805 67.815292 4283189578
-968.66791 -159.03529 68.296326 4283058764
-966.28052 -158.86893 68.182076 4283124557
-963.67395 -159.02547 67.963295 4283189576
-961.3905 -158.89812 68.28817 4283255625
-959.52032 -159.7906 67.849854 4282928973
-1010.2798 -155.43251 67.570709 4282270794
-1007.8973 -155.62143 67.678207 4282665029
-1005.9337 -156.79478 67.681587 4282402373
-1004.7068 -156.59903 67.628296 4282664517
-1000.8378 -156.35228 67.696503 4282795848
-998.49738 -156.56091 68.139641 4282927179
-996.23053 -156.40178 68.309364 4282926667
-993.79242 -156.52347 68.281715 4282927180
-991.22247 -156.64224 67.888092 4282730313
-988.66016 -156.24393 68.529747 4282730312
-986.34717 -156.22432 68.688477 4282927178
-983.78522 -156.09172 68.384308 4282927434
-981.16943 -155.99677 67.999695 4283124041
-978.77698 -156.13457 68.138191 4283058250
-976.21149 -156.21988 68.039322 4282861387
-973.75964 -155.8398 68.373558 4283124299
-971.33307 -155.73468 68.436409 4283189837
-968.71497 -155.6669 68.71981 4283124555
-966.63306 -155.81764 68.340065 4282927437
-964.05145 -155.56519 68.529671 4283058764
-961.92432 -156.92017 67.782303 4283518540
-1010.9678 -154.11542 67.639526 4282598731
-1008.5696 -153.24854 67.706505 4283057992
-1006.0186 -153.20224 67.576553 4282861382
-1003.7241 -153.69189 67.7854 4282861383
-1001.3682 -153.51605 67.935646 4282861382
-998.85858 -153.66797 68.129402 4282926663
-996.43195 -153.57188 67.874886 4282796104
-993.60999 -153.57727 68.339821 4282926666
-991.13501 -153.25972 69.054153 4282992460
-988.52631 -153.55841 67.97068 4283058248
-986.25543 -153.75848 68.199829 4282927176
-983.72113 -153.73724 68.35849 4282861897
-981.23145 -153.8286 68.018173 4283057991
-978.71686 -153.81589 68.021339 4282992713
-976.20233 -153.77408 68.054703 4282927689
-973.8139 -153.76653 68.09697 4282992970
-971.29144 -153.78148 68.547211 4283189580
-968.6922 -153.67049 68.488754 4283320654
-966.22089 -153.91628 68.463654 4283059019
-963.83679 -154.06737 68.581749 4283190864
-1008.5408 -152.20305 67.699211 4282730565
-1005.7056 -151.70473 67.718735 4282861640
-1003.7107 -151.60245 67.835899 4282926664
-1001.1812 -151.39345 67.946266 4282795589
-998.72021 -151.27417 67.874207 4282992459
-996.23621 -151.2659 68.422058 4283058247
-993.81549 -151.45512 68.488922 4282927175
-991.17645 -151.45911 68.536163 4283123530
-988.76843 -151.27188 67.899605 4283058247
-986.21014 -151.20493 68.418121 4283189576
-983.78967 -151.37868 68.351143 4282992966
-981.284 -151.48198 68.122375 4282992712
-978.78021 -151.20071 68.237694 4282927177
-976.36029 -151.19559 68.288612 4282992713
-973.68597 -151.2103 68.732155 4283058509
-971.18799 -151.32216 68.228584 4283189834
-969.48413 -151.30209 68.152176 4283255627
-966.50635 -151.40015 67.903053 4283255626
-964.63574 -152.35448 68.186279 4283518294
-997.89844 -149.90495 67.651855 4282861130
-996.06439 -149.64761 68.081551 4282730312
-994.63586 -149.58038 68.016907 4282992710
-988.11316 -149.869 67.569656 4282795848
-986.33099 -149.49487 67.979668 4282861639
-983.65173 -148.90572 67.807014 4282730307
-980.8559 -148.9827 67.819992 4282861896
-978.68036 -148.77419 67.749245 4282861129
-975.75525 -149.17123 67.828171 4283058761
-973.57367 -148.99115 68.009636 4283189833
-971.29193 -148.86026 67.744492 4282993229
-969.02576 -149.22316 67.872604 4283320906
-966.85577 -148.67819 67.906311 4283256139
-998.16864 -145.80054 67.576347 4282927684
-986.32831 -145.52742 67.716652 4283320904
-983.52405 -146.005 67.612083 4282861644
-979.89777 -146.38245 67.665283 4282993737
-973.50677 -145.73863 67.729515 4283059015
-966.51251 -147.45013 67.7537 4283453006
-1000.5662 -143.14713 67.718689 4283124043
-999.71899 -143.04436 67.572205 4283582024
-994.30151 -142.54883 67.563965 4282467911
-985.85645 -144.75594 67.641602 4282731854
-976.54932 -144.5956 67.551735 4283189325
-974.02161 -144.87579 67.729218 4283386444
-971.15771 -143.75711 68.113419 4283059275
-1000.725 -142.29755 67.576942 4283189579
-999.58014 -142.05539 67.546936 4282926664
-995.48492 -141.26372 67.577843 4283123784
-994.05988 -141.28915 67.534821 4282927692
-990.90009 -140.99564 67.899796 4282862154
-989.37915 -141.01875 67.8685 4282927434
-986.29358 -140.28903 67.835594 4282927179
-983.64288 -140.85587 68.182945 4283189579
-981.37384 -140.91701 68.011421 4283190091
-978.81317 -140.79974 67.915009 4282993226
-976.36237 -140.53377 68.016693 4282993229
-974.14294 -140.08078 67.860611 4283124303
-990.2605 -139.80202 67.501465 4282337610
-987.65057 -138.88182 67.581726 4282993747
-987.1062 -138.75862 67.56057 4283058768
-983.44727 -139.44228 67.935905 4283255371
-981.26825 -139.47034 67.844978 4283124297
-978.65741 -139.43071 67.860886 4282861897
-976.4787 -139.2683 68.047722 4283190089
-974.05994 -139.16249 68.086342 4283255887
-988.93286 -133.40648 67.842079 4283256399
-986.36853 -133.1571 68.097687 4283190350
-983.73834 -132.99435 68.146339 4283256142
-981.24542 -132.96574 67.751335 4283386700
-978.97406 -132.83456 67.998016 4283452235
-977.2807 -133.03635 67.689209 4283256137
-986.13599 -131.89554 67.991928 4283386958
-983.82416 -131.94229 67.900742 4283386956
-981.11584 -131.4951 67.879341 4283190092
-979.09381 -132.15277 67.920448 4283583048
-981.39801 -129.00731 67.701645 4282993999
-977.86145 -173.05733 70.40802 4283255618
-968.46289 -162.75015 70.062164 4282665038
-968.63922 -162.26274 70.057922 4283057740
