# .PCD v0.7 - Point Cloud Data file format
VERSION 0.7
FIELDS x y z rgba
SIZE 4 4 4 4
TYPE F F F U
COUNT 1 1 1 1
WIDTH 597
HEIGHT 1
VIEWPOINT 0 0 0 1 0 0 0
POINTS 597
DATA ascii
-1007.1276 20.860397 43.774658 4281346852
-1052.7115 -8.4218187 47.223438 4282795843
-1052.8391 -18.705843 48.596363 4283188811
-1051.6925 -18.526325 48.443531 4283057994
-1052.8967 -16.327213 48.58691 4282795084
-1051.8796 -16.301388 48.664745 4282795340
-1053.0106 -13.916023 48.005058 4282860865
-1051.9446 -13.785137 48.615196 4282992716
-1053.0061 -11.039849 48.239796 4282664263
-1052.0361 -11.454443 48.768353 4282861130
-1006.1602 -11.258862 49.316185 4281150235
-1053.2637 -8.9364405 47.663204 4282729800
-1052.1298 -9.4024935 47.968636 4282795588
-1006.1888 -8.7888536 49.7178 4281346083
-1053.4082 -6.2999034 47.800343 4282730053
-1007.5519 -5.6438217 49.749374 4282006577
-1006.3848 -6.3079224 49.647705 4281542687
-1007.7153 -3.4737065 49.80125 4282596664
-1006.6857 -3.8441992 49.56805 4281149476
-1007.8315 -1.0377904 49.467373 4282661425
-1006.8144 -1.2849861 49.361305 4281345554
-1007.9 1.2945741 49.57436 4281874484
-1006.9266 1.2506583 48.94487 4280755479
-1007.8755 3.7911777 48.82616 4281806638
-1006.8876 3.6457872 48.711124 4281148953
-1007.951 6.2537141 48.744183 4281675819
-1006.8879 6.2338629 48.701031 4281018904
-1008.086 8.7432966 49.201469 4281938480
-1006.9469 8.7221708 49.114872 4281411346
-1008.0855 11.167104 49.04987 4281413151
-1007.3451 11.282493 48.796597 4281411606
-1008.2233 13.810417 48.949905 4281740573
-1007.3224 14.022562 48.787601 4280887825
-1008.3338 16.432972 48.483891 4281871649
-1007.3577 15.618165 48.424236 4281150497
-1008.4036 18.875916 48.78854 4281543711
-1008.4105 21.33993 49.328289 4281215518
-1008.6873 23.861828 49.311508 4281084706
-1008.8917 26.300228 48.816429 4281938218
-1010.4471 28.412979 48.946369 4282202914
-1009.0298 28.091829 48.430214 4282002984
-1007.2888 -13.185826 51.450603 4282926656
-1007.3618 -11.999897 50.467285 4282991166
-1007.7139 -8.1747742 52.21814 4282859592
-1007.3025 -8.6541405 50.53656 4282269242
-1007.7487 -6.2876205 50.823288 4282597954
-1007.4868 -7.152092 50.371338 4283121213
-1007.7592 -3.8446457 50.49004 4282662712
-1005.9224 -3.0986176 50.165924 4280821532
-1007.7938 -2.1389179 50.041046 4282793270
-1005.9482 -2.0951843 50.146057 4280886059
-1008.017 0.029388428 50.003784 4282727743
-1008.5103 6.4812112 50.056194 4282859840
-1008.9743 12.36544 50.439514 4282925893
-1009.025 13.713163 50.060722 4282598468
-1009.0682 15.384811 50.027668 4282794814
-1053.0345 23.129036 51.707367 4283912791
-1009.69 23.937044 50.841534 4282860614
-1010.0258 27.248604 50.185883 4283585103
-1009.9556 25.996916 51.033112 4283321163
-1010.0414 27.74469 50.114319 4283649877
-1049.8552 -17.786362 53.713806 4283582288
-1049.8639 -17.452858 53.707581 4283516746
-1050.2057 -13.578137 54.617603 4283254088
-1050.2218 -12.071309 54.829144 4282730828
-1007.692 -8.4236336 52.570541 4282795071
-1007.7208 -7.3376083 52.531189 4283188280
-1008.5278 0.8771019 53.979065 4282664507
-1008.6164 3.6264725 53.534393 4282466879
-1009.0162 8.9073696 54.961937 4283123013
-1009.1136 11.340435 54.154633 4282729788
-1009.5512 16.3228 54.581429 4282664267
-1009.6424 18.996817 54.048241 4283188802
-1009.6741 21.068464 54.478954 4282992196
-1052.8009 24.100143 54.381042 4284239959
-1009.7407 23.013828 54.08284 4283123521
-1046.9629 25.106144 54.535797 4283782483
-1044.7128 25.242786 53.55777 4283847504
-1010.1298 26.848877 54.934509 4283847505
-1041.4772 -20.155462 57.131092 4283583823
-1039.6431 -20.102299 57.161285 4282730834
-1041.3973 -19.668894 57.138733 4283584844
-1039.6558 -19.604563 57.153336 4283387983
-1036.2374 -19.47205 56.78315 4283256399
-1033.9958 -19.355663 57.04071 4283387981
-1031.6469 -19.275162 57.459869 4283649606
-1018.2026 -18.243904 57.373962 4283978065
-1017.2079 -17.876579 57.483978 4283715661
-1013.6276 -17.821577 57.322094 4283650650
-1050.1656 -10.748047 55.762131 4282796108
-1050.5045 -7.9464493 56.420013 4282927180
-1050.533 -6.8926926 56.385681 4282730063
-1008.1696 -6.1495948 56.971775 4283057734
-1050.5532 -3.6152637 57.000263 4282796105
-1008.3065 -3.8125143 56.284485 4282991941
-1050.6123 -1.7855301 56.839031 4283189322
-1008.3797 -1.4562403 55.964001 4282926153
-1008.4171 0.095909119 55.990234 4282926145
-1008.929 7.2289047 55.955109 4283188548
-1008.9816 8.5056763 55.498432 4283123525
-1009.0425 10.555577 55.28426 4282729536
-1009.4318 14.667302 56.278667 4283123528
-1051.2377 24.538252 56.883717 4283585108
-1048.2898 24.74144 56.380707 4283519314
-1046.6149 24.680332 56.742146 4283913297
-1044.3278 24.649271 57.072151 4283979350
-1009.9965 24.968994 56.79541 4283386186
-1045.572 25.179499 57.079895 4283781976
-1044.2621 25.17054 56.819286 4283716950
-1041.6174 25.248287 56.606689 4283717208
-1037.5737 25.284157 57.214905 4283717463
-1037.2839 25.410172 56.705505 4283782230
-1029.259 26.105139 57.483562 4283979350
-1026.2797 26.289551 57.366333 4284110682
-1023.2967 26.364464 57.263062 4284307804
-1010.2495 26.323734 56.15905 4283452749
-1009.9875 25.076859 57.044617 4283386447
-1043.5237 -20.046761 58.15575 4283650389
-1041.4403 -20.035446 57.600769 4283190864
-1047.5913 -19.61319 59.664795 4283845713
-1046.0852 -19.706545 59.38385 4283649612
-1043.89 -19.666368 58.571941 4283257169
-1040.641 -19.604057 57.725147 4283256400
-1038.2419 -19.360947 58.743866 4283453522
-1036.2371 -19.266308 57.943565 4283256911
-1033.3059 -19.146156 57.574066 4283584845
-1031.1763 -19.129581 57.925377 4283649608
-1028.7844 -18.974171 58.045177 4283583302
-1026.2925 -18.696533 58.558327 4283387210
-1023.8081 -18.482939 58.056995 4283322705
-1021.285 -18.381409 58.338478 4283256400
-1018.7751 -18.181871 58.354099 4283321681
-1016.1625 -17.867882 57.813499 4283715919
-1013.9405 -17.845644 58.527691 4283649874
-1011.1735 -17.873766 58.526875 4283517766
-1009.451 -17.732004 58.529564 4283321931
-1015.4943 -17.496368 58.605347 4283780685
-1014.0078 -17.464247 58.478775 4283584854
-1011.3562 -17.394922 58.429127 4283519569
-1009.2006 -17.33589 58.417377 4283453775
-1007.6056 -13.009476 59.381714 4282204744
-1007.6857 -11.068822 58.675087 4283122760
-1007.7805 -8.5933084 57.937744 4282664004
-1008.3235 -0.26180267 57.858154 4283056451
-1008.6566 2.8461533 59.525024 4282533954
-1009.3619 14.319016 57.605225 4282730822
-1050.8928 24.064072 58.833416 4283716437
-1048.7625 24.29748 59.27895 4283585621
-1046.1995 24.184368 58.545357 4283781717
-1043.7761 24.116426 58.805893 4283978836
-1041.2395 24.56509 58.710392 4283913301
-1038.7725 24.556229 58.648285 4283913048
-1036.23 24.693903 59.352524 4283782487
-1033.4982 24.804983 59.462063 4283848016
-1031.2936 24.815601 59.277107 4283782486
-1029.6554 24.824049 59.301575 4283979099
-1024.2559 24.926228 59.930664 4283257175
-1009.8686 23.659512 58.844646 4283254851
-1050.3914 25.081841 58.941772 4283061075
-1042.8771 25.392014 58.810101 4283847766
-1040.9883 25.451815 58.233711 4283716955
-1038.7073 25.39234 58.203159 4283913818
-1036.0033 25.558777 58.841396 4283913814
-1033.689 25.669344 59.17461 4284175702
-1031.2795 25.71874 58.589783 4283979350
-1028.7799 25.691851 58.993038 4284044887
-1026.2582 25.705936 59.013615 4284110170
-1024.0057 25.833445 58.464943 4284307287
-1021.2474 26.183346 59.303288 4284241751
-1018.7479 26.164181 58.946507 4283913819
-1016.2106 26.492916 59.681351 4283782999
-1013.833 26.488585 59.000378 4283848538
-1011.3535 26.647038 59.728081 4283978580
-1045.038 -18.771927 62.432678 4283387739
-1043.5544 -18.693222 62.371094 4283584081
-1041.0732 -18.330801 62.435532 4283191373
-1038.6803 -18.35404 62.330231 4283518800
-1037.2683 -18.226738 62.424164 4283519570
-1031.0071 -17.739056 62.200241 4283584843
-1029.0387 -17.655231 61.978943 4283321942
-1047.4875 -14.34864 62.169373 4283254349
-1043.3926 -11.271063 62.477936 4282731076
-1045.6741 -7.8599405 62.485149 4283189319
-1007.957 -8.0801735 61.649017 4282926917
-1048.5867 -6.3207793 62.39933 4283189064
-1045.9789 -5.9839697 62.384491 4282730313
-1043.8779 -5.9717522 62.370895 4282861383
-1041.7572 -5.8621254 62.310337 4282861896
-1039.0823 -5.546875 62.212677 4283188299
-1036.1064 -6.0082812 62.488846 4283057993
-1048.3964 -3.4120357 62.344666 4282795845
-1046.1561 -3.7201235 62.369671 4282926917
-1043.9338 -3.5300658 62.305008 4282992714
-1041.1719 -2.8284743 62.209427 4282992973
-1039.6497 -2.7536697 62.174286 4282862157
-1036.6101 -4.2670846 62.465191 4282927178
-1032.9863 -2.7352817 62.432198 4282992457
-1048.5974 -1.4216422 62.278042 4282926407
-1046.3035 -1.459159 62.195026 4282926663
-1043.7686 -1.3866229 62.104103 4282926922
-1041.264 -1.6679543 62.098728 4282796102
-1038.9279 -1.3092244 62.320057 4282861640
-1036.4143 -1.0280088 62.232449 4282926921
-1033.5698 -1.1680015 62.368649 4282861640
-1030.744 -0.88445157 62.36438 4283189578
-1049.1567 0.9712677 62.421326 4283385668
-1039.5311 0.21760559 62.476624 4283057747
-1036.4531 0.29478964 62.362141 4282861896
-1034.4095 0.27961046 62.394386 4283189321
-1008.8661 1.9656982 61.691345 4283255113
-1037.9834 4.7080383 62.495667 4282862406
-1036.0089 4.921608 62.423767 4283058507
-1033.5063 4.3995075 62.291042 4282861127
-1031.5385 4.7021065 62.40921 4282730573
-1008.9266 4.1186256 61.53952 4282993229
-1049.8008 6.7369766 62.324127 4283189832
-1040.4834 5.1453514 62.40744 4282992457
-1038.6401 6.355895 62.414165 4282992457
-1036.1815 6.5537753 62.324997 4282992712
-1033.8265 6.4523978 62.241261 4282992967
-1008.9576 5.9166031 61.838562 4282928195
-1050.0083 8.3830261 62.297119 4282467910
-1049.6171 8.5256281 62.267559 4282861380
-1037.7345 7.8522491 62.422241 4283320396
-1036.2917 7.9529486 62.351902 4282926921
-1033.8271 8.0688581 62.284481 4282992455
-1030.1918 9.6907501 62.127075 4282272073
-1050.4235 11.675926 62.243256 4282862148
-1048.6656 11.537477 62.17701 4282927432
-1046.306 11.589306 62.355469 4282796360
-1043.8501 11.678466 62.298416 4283058246
-1040.7271 11.59872 62.421463 4282927178
-1039.8324 12.422211 62.399231 4283189832
-1030.2308 11.013667 62.030598 4282861637
-1029.4806 10.898007 62.208096 4282796364
-1026.3005 11.062468 62.457726 4282403146
-1023.2531 11.780683 62.469494 4282862154
-1021.5021 11.926366 62.428047 4283124044
-1019.981 11.909725 62.376556 4282731851
-1009.1781 11.570904 60.109314 4282730309
-1050.4534 12.831357 62.220398 4282926668
-1047.8854 12.665443 62.488098 4283124300
-1046.4094 12.75735 62.443359 4282861640
-1043.5284 13.093201 62.264256 4283058249
-1041.3671 13.503438 62.360226 4283058508
-1039.8452 12.917088 62.389435 4283190087
-1025.9471 12.752865 62.429596 4282861641
-1022.9724 12.823718 62.459625 4283255624
-1021.1284 13.187264 62.364491 4283255118
-1019.154 13.084831 62.324047 4283386697
-1016.138 14.072524 62.200829 4283255627
-1014.1132 13.940776 62.330284 4283255373
-1010.1494 14.947708 62.345581 4283255881
-1009.8199 14.955978 62.334229 4282928199
-1050.5375 17.440216 62.496033 4283386449
-1016.0404 16.0431 62.232368 4283255628
-1014.5452 15.980961 62.264797 4283255885
-1010.8022 16.550125 62.344814 4283451982
-1009.857 16.27718 62.24538 4283320905
-1050.5564 18.809891 62.468346 4282993225
-1049.2487 19.074516 62.40192 4283189579
-1045.7739 18.872503 62.468292 4283124301
-1010.3742 17.576874 62.462555 4283583817
-1009.8802 17.589005 62.445557 4283453247
-1050.6282 21.291843 62.231514 4283124811
-1048.8706 21.326958 62.291451 4283124554
-1046.2289 21.405996 62.304295 4283190092
-1043.7083 21.586864 62.232887 4283583568
-1041.2654 21.76502 62.231987 4283190347
-1038.7124 21.898079 62.156437 4283320906
-1037.188 22.095943 62.190674 4283255627
-1050.5585 23.147095 61.615295 4283059530
-1048.7365 23.237764 61.492733 4283584334
-1046.2137 23.158894 61.64888 4283518285
-1043.6849 23.14769 61.698677 4283519056
-1041.2438 23.361382 61.74559 4283190866
-1038.7863 23.514515 61.538589 4283584592
-1036.3936 23.725233 61.664124 4283387729
-1033.8555 24.103313 61.413918 4283584850
-1031.3638 24.263712 61.499554 4283519056
-1028.8163 24.397171 61.572899 4283519060
-1026.1525 24.369614 61.587151 4283584593
-1024.0499 24.650766 61.769192 4283585105
-1021.3032 24.893778 62.185268 4283519831
-1018.7502 24.74247 62.282288 4283715664
-1015.3386 24.75531 62.471191 4283715406
-1014.0212 24.788406 62.425575 4283321423
-1010.0413 23.681633 62.242188 4283058502
-1033.9989 25.439331 60.085163 4283782745
-1027.7339 25.16967 60.04425 4283651419
-1027.4077 25.343246 60.02951 4283651925
-1022.9622 25.318714 60.720745 4284175450
-1021.3709 25.341928 60.695168 4283781976
-1018.6497 25.298023 61.097065 4283716437
-1016.1932 25.659321 61.396702 4283716693
-1013.7684 25.648243 61.565277 4283454030
-1011.699 26.045431 61.496532 4283847509
-1047.7848 -17.945196 62.80241 4283190089
-1046.1482 -18.202646 63.128216 4283321425
-1043.7109 -18.105692 63.090939 4283190605
-1041.3978 -17.914873 63.281143 4283321936
-1038.7958 -17.93384 62.987713 4283059790
-1036.3279 -17.809259 63.085133 4283453265
-1033.6113 -17.751354 63.215538 4283387983
-1031.653 -17.805763 63.148575 4283519055
-1028.9119 -17.591122 63.021809 4283845708
-1047.9048 -16.060595 63.388779 4283190093
-1046.1643 -16.305157 63.424812 4283255370
-1043.6948 -16.258474 63.558632 4283190092
-1041.1475 -16.260256 63.610378 4283124558
-1038.6592 -16.230556 64.010269 4283255886
-1036.1824 -16.168297 63.82922 4283255886
-1033.7601 -16.238884 63.90799 4283255883
-1031.2633 -16.233431 63.72628 4283452236
-1028.7916 -16.178991 63.659313 4283321932
-1026.3414 -16.300442 63.612492 4283453008
-1023.6687 -16.04215 63.424122 4283583567
-1021.2612 -16.089834 63.28368 4283453010
-1018.7322 -16.037849 63.486065 4283321937
-1016.2439 -15.820842 63.47419 4283518284
-1013.7441 -15.849043 63.817459 4283387470
-1011.2924 -15.749825 63.887138 4283387729
-1009.2766 -15.740788 63.798553 4283584592
-1048.1434 -13.656609 62.711376 4283254606
-1046.266 -13.769892 63.2897 4283123785
-1043.7277 -13.793566 63.428093 4283058504
-1041.257 -13.726694 63.533417 4282927178
-1038.7833 -13.772179 63.680809 4283189835
-1036.2776 -13.736175 63.775845 4283058505
-1033.7218 -13.760236 63.771797 4283189834
-1031.2844 -13.807466 63.735504 4283190092
-1028.7032 -13.692263 63.687199 4283189836
-1026.2158 -13.834738 63.880646 4283321164
-1023.7415 -13.686949 63.836147 4283452234
-1021.1992 -13.645353 63.98214 4283386957
-1018.7646 -13.780669 64.230141 4283386957
-1016.2798 -13.762655 64.07354 4283321422
-1013.7013 -13.824826 64.327156 4283124557
-1011.2344 -13.734404 64.182304 4283386701
-1008.94 -13.756883 64.040047 4283386705
-1048.2031 -11.213985 63.033566 4283254855
-1046.2848 -11.263104 62.973217 4282927176
-1043.7655 -11.265737 62.965057 4282992714
-1041.2303 -11.266031 62.933479 4283124046
-1038.7396 -11.370735 62.913025 4283189322
-1036.2295 -11.312271 63.32608 4282861896
-1033.703 -11.19834 63.673737 4283123786
-1031.2502 -11.275125 63.56575 4283189834
-1028.754 -11.239078 63.556087 4283189834
-1026.2598 -11.286807 63.788109 4283189836
-1023.7678 -11.256123 63.706196 4283124302
-1021.3177 -11.156174 63.767826 4283190091
-1018.7756 -11.320786 64.092239 4283320910
-1016.2426 -11.203335 64.299393 4283255372
-1013.7675 -11.174504 64.477158 4283321164
-1011.2584 -11.183085 64.525711 4283255628
-1008.8904 -11.204367 64.360313 4283255627
-1048.2692 -8.6080904 63.166401 4282795592
-1046.4076 -8.853178 62.914955 4282796359
-1043.7561 -8.7698288 62.958828 4283058505
-1041.2814 -8.7544155 62.940117 4282861900
-1038.7646 -8.7315741 63.101051 4282992713
-1036.2583 -8.7666292 63.197701 4282992710
-1033.778 -8.7260637 63.474842 4282927433
-1031.2517 -8.7873602 63.541176 4283189578
-1028.8 -8.785531 63.492786 4283189582
-1026.3157 -8.6741657 63.558872 4283058763
-1023.8688 -8.8099155 63.576122 4282927434
-1021.1779 -8.7651758 63.531719 4283124299
-1018.7255 -8.6889725 63.871208 4283124557
-1016.2097 -8.7249107 64.193489 4283058763
-1013.7526 -8.7035427 64.332382 4283059019
-1011.2458 -8.7500687 64.358261 4283124558
-1008.9819 -8.7545509 64.115875 4283058763
-1048.2944 -6.1583467 62.556526 4283123784
-1046.858 -6.7829289 62.7593 4282861376
-1043.3574 -7.0400453 62.749729 4282730828
-1041.0184 -6.375968 62.66235 4282927437
-1038.6759 -6.2882633 62.692036 4282796107
-1036.2874 -6.3529325 62.892525 4282927177
-1033.7239 -6.2913857 63.092903 4282992971
-1031.2183 -6.1866145 63.169647 4283189579
-1028.7377 -6.289947 63.152649 4283255116
-1026.2391 -6.2484584 63.162395 4283189579
-1023.769 -6.307713 63.14716 4283124043
-1021.3021 -6.2658224 63.186291 4283189838
-1018.7693 -6.1326776 63.506416 4283124299
-1016.3204 -6.3291488 63.622307 4283058764
-1013.7324 -6.1856823 64.230186 4283124302
-1011.2821 -6.2380319 63.979069 4283255626
-1009.2125 -6.2926011 63.829109 4283190350
-1048.677 -3.9742844 62.744255 4282730058
-1047.3423 -4.1074314 62.820511 4282795076
-1043.3472 -4.0071306 62.684937 4282926663
-1041.2587 -3.9729774 62.672741 4282926919
-1038.7183 -3.748852 62.716721 4283058251
-1036.1968 -3.6739349 62.861595 4282665036
-1033.823 -3.79075 62.893238 4282861643
-1031.2605 -3.7407515 63.115551 4282927435
-1028.7253 -3.7757771 63.246319 4283123787
-1026.2629 -3.7963653 63.159958 4282927434
-1023.6922 -3.675137 63.250713 4283058507
-1021.2463 -3.7900259 63.13773 4283124300
-1018.683 -3.6918855 63.495438 4283124299
-1016.2183 -3.7500057 63.359207 4283189578
-1013.7318 -3.784636 63.905788 4283124298
-1011.2661 -3.7221093 63.784 4283255373
-1009.2734 -3.7983308 63.684181 4283386445
-1048.6802 -1.1007525 62.82254 4282860613
-1046.2867 -0.28231049 62.693268 4282992457
-1043.8129 -0.21993038 62.607578 4283058507
-1041.4034 -0.31454316 62.627937 4282993223
-1038.3306 -1.0878975 62.812855 4282926922
-1035.8225 -1.6066564 62.784332 4282992455
-1034.5776 -2.0653753 62.576336 4282992456
-1031.2385 -1.2989926 63.072739 4282796362
-1028.712 -1.1969731 63.19614 4283058251
-1026.2201 -1.2810508 63.098763 4283123785
-1023.7396 -1.2209328 63.167278 4283058762
-1021.2486 -1.3019146 63.061405 4283058763
-1018.7865 -1.2357956 63.143265 4283189835
-1016.2636 -1.1064233 63.227596 4283124298
-1013.8067 -1.3243339 63.536629 4283058507
-1011.222 -1.2105993 63.751091 4283255370
-1009.3522 -1.3684688 63.652508 4283059021
-1048.5687 1.2505556 63.041607 4283123529
-1046.3311 1.169565 63.056767 4282861382
-1043.8031 1.1946192 63.109535 4282861642
-1041.3073 1.312008 63.316643 4283058250
-1038.687 1.3490998 63.321804 4282926923
-1036.2692 1.4696587 63.118176 4282795849
-1033.5929 1.4281415 63.467297 4282992712
-1031.2295 1.2964543 63.611263 4282796362
-1028.7085 1.3499113 63.587132 4282926921
-1026.2759 1.2064797 63.174702 4282927176
-1023.7551 1.1961236 63.157951 4283124040
-1021.1937 1.3027236 63.015152 4282993224
-1018.7377 1.1918758 63.062271 4283255369
-1016.2144 1.2940403 63.026615 4283124299
-1013.7122 1.3191187 63.542515 4283124041
-1011.2338 1.2178506 63.578247 4283059019
-1009.3963 1.3265597 63.260273 4283189837
-1048.7401 3.7908282 63.508266 4282927432
-1046.2487 3.6661699 63.264851 4282926920
-1043.687 3.7290008 63.241341 4282992715
-1041.2189 3.7804618 63.111305 4282927434
-1038.7976 3.7455978 63.048042 4282927175
-1036.217 3.7871821 63.306736 4282795847
-1033.7705 3.5878317 63.324139 4282926920
-1031.2655 3.6941411 63.472942 4282992713
-1028.795 3.7989023 63.609806 4282992968
-1026.2523 3.9165893 63.517433 4282927178
-1023.8206 3.695303 63.559639 4283058252
-1021.1985 3.8502767 63.784214 4282992971
-1018.7426 3.7603722 63.489254 4282992970
-1016.2664 3.6866624 63.420151 4283058761
-1013.7473 3.7656879 63.643311 4283124043
-1011.2872 3.6854854 63.740074 4283124557
-1009.5114 3.7975798 63.312523 4283190095
-1048.5685 6.1027288 63.202209 4282992717
-1046.223 6.2921262 63.318813 4282926924
-1043.7786 6.2639866 63.374092 4283124044
-1041.1907 6.3471422 63.04488 4283123529
-1038.8842 5.8442473 62.730194 4282992969
-1036.3135 5.6502724 62.984184 4282861381
-1033.7153 6.0613604 62.905235 4283189322
-1031.262 6.3055668 63.038818 4282861643
-1028.7264 6.2039027 63.229282 4283058507
-1026.2203 6.2770491 63.087818 4282861640
-1023.7622 6.1951747 63.072533 4282927690
-1021.2817 6.2998266 63.17416 4283255372
-1018.7996 6.3581018 63.301933 4283059020
-1016.292 6.2039766 63.582573 4283255370
-1013.7348 6.3021717 63.785793 4282992970
-1011.2715 6.2739453 63.800186 4283189837
-1009.5311 6.2257204 63.86541 4283386957
-1050.1936 9.5874052 62.745289 4283057221
-1048.5615 8.8112249 63.069298 4283123529
-1046.3251 8.8423452 63.067741 4282992714
-1043.7437 8.7233858 63.507381 4282861641
-1041.17 8.7510862 63.369148 4282861642
-1038.7225 8.8647785 63.251377 4282926923
-1036.2549 9.2598019 63.135162 4282861384
-1033.7246 8.9730015 63.059959 4283189067
-1031.2489 8.7357817 62.883881 4282992714
-1028.7469 8.7505054 62.895363 4282927691
-1026.2738 8.7431622 62.937576 4282992970
-1023.7565 8.8360863 63.036243 4283124045
-1021.2523 8.7347097 63.183125 4283124301
-1018.6863 8.8585911 63.220257 4283124301
-1016.2598 8.77386 63.434303 4282992970
-1013.7251 8.7304487 63.650543 4283124300
-1011.2518 8.7894411 63.682117 4283124555
-1009.605 8.6672707 63.582294 4282862408
-1050.1367 10.978043 62.648773 4282665546
-1048.7512 10.982111 62.582588 4282927177
-1046.119 10.578272 62.675465 4282861899
-1043.7238 10.60805 62.681232 4282730825
-1041.6182 11.122486 63.162365 4282992714
-1038.7554 11.271188 63.098724 4283189575
-1036.2448 11.205233 63.062786 4282730568
-1033.7263 11.268347 63.134651 4283123531
-1031.422 11.265838 62.84594 4283058504
-1028.6086 11.286633 62.643913 4283123787
-1026.2144 11.276919 62.729252 4282730827
-1023.8563 11.10749 62.782047 4282992971
-1021.1365 10.943951 63.154785 4283058508
-1018.7089 11.225199 62.756409 4283189836
-1016.3026 11.301966 63.021355 4283190092
-1013.8048 11.182129 63.28434 4283058764
-1011.257 11.299453 63.484047 4283190092
-1009.7097 11.024486 63.538589 4283190342
-1050.2118 13.894102 62.888813 4282599241
-1048.7983 13.838031 63.00771 4283123784
-1046.2274 13.966192 63.040874 4282927177
-1043.7767 13.96181 63.049183 4282992972
-1041.1388 14.089026 62.909279 4283058252
-1038.74 13.739524 63.224491 4283124043
-1036.3263 13.782653 63.128178 4282927693
-1033.6995 13.721339 63.176716 4283189578
-1031.2274 13.765654 62.906136 4283320903
-1028.7169 13.699232 62.881371 4283058763
-1026.2892 13.759009 62.812401 4282993227
-1023.8345 13.820131 62.956608 4283124300
-1021.3083 14.188613 62.74453 4283189581
-1018.6622 13.818796 62.768127 4283189837
-1016.1954 13.613307 62.610119 4283190093
-1013.6202 13.659211 62.770679 4283124300
-1011.2725 13.799647 62.808853 4282993741
-1009.7687 13.696127 62.759529 4282928201
-1050.3091 16.248705 62.743404 4283123531
-1048.7856 16.335285 63.18055 4282730572
-1046.2856 16.178297 63.216324 4282992969
-1043.7029 16.294374 63.164898 4283124042
-1041.2599 16.246906 63.182766 4283058508
-1038.6886 16.185986 63.489475 4282927693
-1036.1871 16.367544 63.870529 4283189836
-1033.6938 16.298138 63.720741 4283058508
-1031.2568 16.192205 63.591606 4283189581
-1028.7623 16.224888 63.579311 4283124554
-1026.292 16.307638 63.429707 4283059019
-1023.8267 16.263374 63.797005 4283058764
-1021.0945 16.280329 63.380276 4283124302
-1018.7609 16.199718 62.767399 4282993484
-1016.4155 16.357756 62.655182 4283386703
-1013.6353 16.389559 62.746197 4283124556
-1011.6197 16.0298 62.612579 4283255889
-1048.3149 18.419828 62.818794 4282993227
-1046.4215 18.725609 62.905415 4283059017
-1043.7402 18.738218 62.983662 4283058761
-1041.2367 18.750095 62.874489 4283189832
-1038.767 18.695599 63.132874 4283059021
-1036.2543 18.749098 63.579952 4282993231
-1033.7864 18.805555 63.662571 4283124298
-1031.236 18.70121 63.523533 4283058761
-1028.7767 18.647678 63.406399 4282993742
-1026.1721 18.78829 63.490631 4283189835
-1023.7258 18.76697 63.888191 4283255884
-1021.2756 18.669832 63.54335 4283321163
-1018.7411 18.786278 63.565929 4283386703
-1016.3105 18.786505 63.551102 4283255628
-1013.6747 18.855654 63.491009 4283255631
-1011.3541 18.70355 63.623936 4283320907
-1047.8579 20.463638 62.720703 4283320653
-1046.1604 20.444181 62.886841 4282665544
-1043.7826 20.416967 62.883732 4283189838
-1041.2319 20.615818 62.867737 4283190091
-1038.8008 20.851595 62.970299 4283321423
-1036.1213 21.116365 63.139057 4283124301
-1033.7172 21.185053 63.285564 4283255884
-1031.208 21.226233 63.153393 4283386701
-1028.7551 21.262684 63.076473 4283124557
-1026.2797 21.35844 63.089161 4283321163
-1023.7512 21.334675 63.528957 4283255888
-1021.2794 21.205006 63.515553 4283321677
-1018.7342 21.326939 63.591129 4283518287
-1016.294 21.19208 63.629707 4283386955
-1013.7233 21.264191 63.478352 4283452750
-1011.3613 21.23662 63.907749 4283386956
-1009.9784 22.022522 62.702942 4283124817
-1035.8436 23.005186 62.685287 4283190860
-1033.6653 23.05411 62.729565 4283256400
-1031.2303 23.230482 62.791851 4283452752
-1028.6245 23.405863 62.771011 4283387470
-1026.3481 23.510666 62.693073 4283387216
-1023.5804 23.50491 62.890068 4283453265
-1021.2321 23.630905 62.853012 4283191121
-1018.7956 23.660515 62.951378 4283453008
-1016.2491 23.699745 63.114216 4283321934
-1013.7628 23.654369 63.188068 4283387212
-1011.3032 23.748211 63.363708 4283321419
-1016.5184 25.086401 62.78595 4283715663
-1013.3481 25.273657 62.916016 4283584847
-1011.5322 25.41572 63.016769 4283518800
-1014.4276 -13.1892 65.04821 4283058765
-1013.9686 -11.861 65.004883 4283124810
-1010.3497 -11.277836 65.210693 4283189571
