# .PCD v0.7 - Point Cloud Data file format
VERSION 0.7
FIELDS x y z rgba
SIZE 4 4 4 4
TYPE F F F U
COUNT 1 1 1 1
WIDTH 751
HEIGHT 1
VIEWPOINT 0 0 0 1 0 0 0
POINTS 751
DATA ascii
-1003.0123 -108.51007 64.58844 4280952108
-1002.0218 -109.0157 64.290115 4281411868
-1024.0344 -93.549454 64.133507 4282070576
-1027.8799 -90.675125 64.205612 4281479728
-1025.905 -92.297707 64.176849 4281809718
-1056.4172 -125.81091 66.971237 4282202683
-1056.0924 -124.48885 67.123207 4282006580
-1051.2433 -116.7169 66.548096 4281940535
-1049.3893 -113.91286 66.324455 4282137659
-995.68652 -113.95177 66.774567 4281608215
-1000.5604 -110.49028 66.886047 4281747267
-999.60559 -110.90266 65.775909 4281741364
-1002.9713 -108.60834 65.492798 4281676335
-1001.9347 -109.25275 66.244453 4282071091
-1020.9539 -95.818939 65.987068 4282401602
-1019.7148 -96.735657 66.258911 4282074176
-1025.0579 -93.019501 66.641937 4282468425
-1023.7705 -93.965553 66.647575 4282926919
-1022.4083 -94.874786 66.121765 4282664517
-1028.6669 -90.327011 66.101196 4282860352
-1026.5433 -91.896446 66.222557 4282860607
-1056.3455 -126.679 68.195854 4282203454
-1051.2655 -117.50435 69.447876 4282202687
-1050.772 -116.61691 68.545082 4281940792
-1049.9751 -115.77032 69.584351 4281679165
-1048.7435 -113.85185 68.858727 4282268987
-996.01031 -113.82183 68.901237 4281872683
-1047.4028 -112.32489 69.783691 4282269237
-1000.8132 -110.37864 68.842407 4283059786
-999.53235 -111.11144 67.529449 4282926661
-1045.4718 -109.09575 69.249634 4281810230
-1001.8235 -109.56521 68.735687 4283452238
-1005.8395 -106.70691 68.690376 4282993482
-1004.7606 -107.25669 68.015724 4282664770
-1021.5101 -95.56723 68.280945 4283255627
-1019.5559 -96.963051 68.734009 4283714126
-1023.402 -94.459595 68.69696 4283190345
-1028.9674 -90.301453 68.216431 4283516751
-1026.9714 -91.590912 68.061218 4283057473
-1051.2039 -117.67441 70.023865 4282398778
-1050.7943 -117.25936 70.929443 4282530876
-1049.5317 -115.53052 71.224373 4281810239
-995.70184 -115.70637 70.354294 4281278738
-1048.041 -113.44896 71.184853 4282072633
-1047.2755 -112.65623 71.037354 4282138928
-996.08032 -114.16216 70.859596 4281020201
-1046.4858 -111.33995 71.221977 4282203708
-1001.0498 -110.28159 71.161743 4283387464
-1045.24 -109.40206 71.134949 4282007356
-1044.7649 -108.97309 71.584717 4282203963
-1002.0773 -109.41991 70.608063 4283583567
-1043.5989 -107.18406 71.333649 4281876795
-1005.8027 -106.85273 71.179291 4283255885
-1010.3597 -103.47317 71.815674 4283321423
-1014.3987 -100.59995 71.145538 4283517772
-1034.8274 -95.111694 71.719757 4282401607
-1022.6697 -95.117126 72.082581 4283190608
-1022.0737 -95.331566 71.091026 4283320656
-1019.4529 -97.0634 70.355164 4283583824
-1023.3971 -94.48584 71.228233 4283124810
-1028.8486 -90.749367 71.952271 4283124045
-1049.365 -115.74516 73.122704 4282268736
-996.53571 -115.55304 74.651001 4282661690
-1047.4146 -112.99835 72.934448 4281680446
-996.78894 -113.60001 74.011024 4282860614
-1046.2269 -111.6832 73.249756 4282400578
-999.22888 -111.6924 74.979614 4283451723
-1045.2178 -109.86829 72.667908 4282596672
-1044.6741 -109.34169 73.362549 4282596927
-1003.1354 -108.91705 74.219948 4283321425
-1005.7164 -106.96451 72.988785 4282993226
-1010.2396 -103.55437 74.106415 4282666064
-1015.1863 -100.30852 74.688293 4283649106
-1014.672 -100.60297 73.263992 4283452497
-1018.3769 -98.274101 74.053543 4282993737
-1016.922 -99.323456 73.35611 4282927442
-1035.2782 -96.243515 72.908112 4282401858
-1034.7855 -95.629723 73.447021 4282861120
-1022.577 -95.281021 73.428467 4283321937
-1021.5457 -95.967018 73.940948 4283255633
-1026.167 -92.701508 74.453857 4283451726
-1023.9795 -94.211662 74.036346 4283190092
-1027.8845 -91.099678 73.836945 4282665288
-998.5481 -112.55971 75.164001 4283386696
-996.55695 -114.16193 75.034607 4282401091
-1002.1259 -110.09067 76.818115 4283256397
-999.19818 -111.85577 75.667725 4283517514
-1043.4962 -109.27927 77.29718 4282072633
-1002.9869 -109.36886 76.553238 4283059275
-1002.4591 -109.77548 76.819763 4283321672
-1007.7797 -105.74481 76.554199 4283254361
-1007.0258 -106.31172 76.365921 4283320908
-1010.111 -103.95892 76.407578 4283518541
-1009.4351 -104.53887 76.608673 4283779154
-1015.4326 -100.30661 76.075958 4283583315
-1014.7619 -100.72826 76.226707 4283255626
-1018.2237 -98.592079 76.439133 4283386957
-1016.8638 -99.529541 76.452957 4283387214
-1034.3605 -96.949341 76.98938 4282139203
-1022.6871 -95.283096 76.703766 4283518031
-1021.8823 -96.014908 76.131851 4283321163
-1019.7176 -97.267235 76.519432 4282993993
-1026.1476 -92.851067 76.74379 4283386190
-1024.0293 -94.281578 76.493988 4283189839
-1028.5079 -91.213135 76.629662 4283255628
-1027.1802 -91.693069 77.080688 4283517256
-1046.4319 -132.86198 78.243347 4281876515
-1052.0715 -122.83879 79.6633 4281875780
-1050.587 -120.65908 79.286293 4281352509
-1050.4913 -119.89673 78.255753 4281810486
-1049.421 -118.89263 79.425468 4281745212
-998.30554 -118.99174 79.011841 4282728504
-1048.0054 -116.80984 78.583336 4281941563
-1047.1321 -115.70044 79.4664 4281941821
-996.71484 -115.61214 78.685257 4283056702
-1045.7139 -113.50517 78.779121 4282268221
-1044.8754 -112.60642 79.148193 4282202692
-996.74481 -113.70825 79.178406 4283123789
-1045.2837 -112.33978 78.334106 4282335793
-1043.8417 -111.15577 79.256676 4282268990
-1003.1882 -110.22588 78.496002 4283387212
-1001.032 -110.99335 79.134758 4283190095
-999.05078 -112.24945 79.213722 4283124557
-1043.0283 -109.44658 78.810493 4281876280
-1041.5457 -108.3772 79.28978 4282072384
-1003.5883 -109.09598 78.805733 4283190605
-1002.4105 -109.81631 77.93689 4283256144
-1040.7152 -106.72498 79.110733 4282466105
-1039.704 -105.44672 79.448647 4282073409
-1008.0704 -105.85986 79.231163 4283583563
-1006.8396 -106.82701 78.627052 4283386441
-1038.4546 -103.57819 79.36927 4282268991
-1010.4822 -103.95593 78.941452 4283255630
-1009.6295 -104.49456 79.192719 4283255634
-1037.6272 -102.38515 79.233459 4282137913
-1037.1428 -102.02879 79.292694 4282138167
-1017.968 -100.28059 79.947998 4283124049
-1015.9812 -100.37399 78.979919 4283255629
-1014.5654 -101.32345 79.012993 4283190351
-1035.4487 -99.463959 78.888351 4282138430
-1034.4822 -98.225555 79.141861 4282531900
-1021.4854 -97.632095 79.265686 4283124298
-1018.4686 -98.856331 78.973312 4283452494
-1016.7468 -99.80619 78.463516 4283256142
-1033.3883 -96.31459 78.754623 4282269513
-1023.0464 -95.675751 78.925728 4283517769
-1021.6141 -96.877441 78.706734 4283256139
-1019.5635 -97.405022 78.922943 4283584074
-1031.3829 -93.556267 78.893753 4282730307
-1026.0793 -93.329857 78.9114 4283189837
-1024.2513 -94.61113 78.58152 4283321164
-1030.3224 -92.264305 78.72699 4283189581
-1028.6238 -91.562019 78.651993 4283190092
-1027.1962 -92.05233 78.553062 4283451719
-1026.0596 -147.10138 80.225098 4282400570
-1018.485 -145.87708 82.307007 4282203449
-1016.408 -143.30067 81.982582 4282399799
-1036.8477 -137.73029 82.209839 4281548093
-1030.9219 -137.75574 82.482727 4282333752
-1029.5308 -137.7859 82.436005 4282270006
-1019.6462 -137.8067 82.442322 4282204475
-1013.4932 -138.80992 82.008522 4282596927
-1038.6312 -137.36272 80.454163 4282335292
-1030.9347 -136.93117 82.428528 4282137661
-1029.5582 -136.81927 82.384651 4282269502
-1026.4606 -137.36667 82.450516 4281941815
-1022.6298 -135.48651 82.278656 4282268483
-1019.6734 -137.02167 82.319305 4282335039
-1013.4483 -136.82457 82.236542 4282270000
-1040.4792 -134.9086 82.275513 4281482825
-1050.6027 -127.6184 81.795288 4282465853
-1048.6595 -127.98833 82.095894 4282137914
-1046.0409 -128.10971 82.160233 4282137919
-1040.4948 -128.06258 82.124229 4282596156
-1039.5027 -127.87534 82.389984 4282465338
-1036.5834 -127.6164 82.466209 4282464059
-1033.2 -127.71632 82.174164 4282268732
-1031.6422 -127.72337 82.395447 4282399286
-1050.851 -126.73312 82.388374 4282400313
-1048.7124 -126.58054 82.215813 4282269242
-1046.3126 -126.674 82.164375 4281744190
-1042.8439 -126.13919 82.194321 4282137400
-1041.135 -126.62428 82.300522 4282006330
-1038.7312 -126.22823 82.248375 4282137658
-1036.8429 -126.3979 82.359245 4282006844
-1033.2256 -126.82108 82.124695 4282269500
-1031.4329 -126.79412 82.251289 4282269504
-1028.4528 -125.93663 82.282318 4282138174
-1025.1454 -125.68935 82.164001 4282137659
-1023.8842 -125.55577 82.226288 4282137405
-1020.8467 -125.50372 82.31781 4282203453
-1017.7035 -125.13676 82.229126 4282137923
-1009.1132 -125.17964 82.429352 4282138689
-1007.3328 -125.29494 82.391418 4282334271
-1003.3394 -125.26479 81.27578 4282465598
-1051.9078 -123.06512 81.211403 4281941052
-1043.0522 -124.83151 81.626404 4282268475
-1040.314 -122.93209 81.895866 4281941818
-1039.2396 -123.5271 82.268684 4281810495
-1036.8463 -123.79623 82.364197 4281875004
-1028.6495 -124.33399 82.267899 4282268985
-1027.4463 -124.25626 82.200668 4281941568
-1023.8618 -124.07091 82.107246 4282138432
-1020.9727 -124.17957 82.12587 4282204482
-1017.747 -123.79369 82.06012 4282334529
-1016.2328 -123.48899 81.97097 4282203710
-1013.7936 -123.70137 82.061455 4282203708
-1011.1783 -123.86957 82.23819 4282138171
-1009.0495 -124.578 82.070564 4282137923
-1005.7175 -123.82838 82.357193 4282203968
-1003.714 -123.603 82.086853 4282400576
-1050.8252 -121.57327 81.247414 4282138428
-1049.3424 -120.78342 82.133194 4282072896
-1045.4639 -121.6032 82.065041 4282072640
-1043.8405 -121.60284 82.099327 4281941054
-1041.3104 -121.55477 81.836876 4281941050
-1038.7 -121.50862 81.977379 4281941309
-1036.4082 -121.20964 82.148697 4281875516
-1033.8397 -121.06844 82.269043 4281548098
-1030.4648 -120.00023 82.227234 4281483324
-1028.5369 -120.96445 82.083763 4281941308
-1025.9446 -121.28329 82.159065 4281876285
-1023.4059 -120.39999 82.413353 4282072634
-1003.2581 -122.1933 82.412384 4281941569
-1000.8859 -121.717 81.421692 4282203710
-1048.8235 -118.79182 81.607391 4282137659
-1030.1418 -119.99211 82.216064 4281417532
-1028.6903 -119.95873 82.133385 4281744700
-1026.4286 -119.90078 82.054291 4282531131
-1023.4843 -119.93469 82.447372 4282007356
-1012.9741 -119.45557 82.46167 4282138425
-1000.615 -118.29986 82.21759 4282663496
-999.17114 -118.39257 81.874069 4282597951
-1047.7489 -117.20605 80.848045 4282269248
-1046.8564 -115.92582 81.4319 4282072380
-1043.8561 -115.18736 82.455444 4281745731
-1045.5281 -114.31689 81.502014 4282268225
-1043.8733 -113.71542 82.066612 4281941310
-1041.2529 -113.83545 81.76017 4281941049
-1038.7114 -113.5684 81.538101 4281941055
-1036.238 -113.45449 82.096802 4281744442
-1033.7307 -113.29366 81.93055 4282269243
-1031.1803 -113.37083 81.94812 4282072892
-1028.937 -113.28915 81.894241 4282072634
-1026.271 -113.22028 82.003616 4282006844
-1024.2885 -112.9538 82.114449 4282335034
-1021.114 -112.87128 82.075539 4282335037
-1018.3895 -112.69798 82.364273 4282532158
-1016.7041 -112.60649 82.434593 4282138947
-1013.4675 -112.50404 82.493164 4281809725
-998.99365 -112.72562 82.0457 4283321160
-1043.564 -111.44497 81.421227 4282334781
-1030.1897 -112.24571 81.92926 4282465096
-1028.491 -112.22881 82.052177 4282400323
-1026.2991 -112.29631 81.926453 4282072891
-1024.1367 -112.26547 81.896271 4282466371
-1021.3574 -112.23123 81.956627 4282269759
-1018.6036 -112.2655 82.309845 4282531897
-1016.0419 -112.21449 82.305222 4282270266
-1013.4677 -111.86044 82.173454 4282401087
-1011.4332 -111.87785 82.164986 4282335550
-1008.8049 -111.56903 82.402596 4282270268
-1006.6142 -111.3298 82.245956 4282598207
-1003.0787 -110.92335 81.644615 4282992712
-1001.2855 -111.26286 81.180695 4283451980
-999.49335 -112.05562 81.278297 4283190094
-1042.7603 -109.74282 80.485008 4282268473
-1041.7383 -108.92477 81.367401 4282072383
-1035.4326 -108.46067 82.373199 4282399811
-1034.5603 -108.30522 82.386452 4281941314
-1031.718 -108.20161 82.298981 4282137918
-1020.0482 -108.17081 82.459961 4282663744
-1019.4739 -107.89458 82.434509 4282663741
-1006.2801 -107.7623 81.530952 4283190088
-1003.9897 -109.06764 81.611809 4282993744
-1040.3027 -106.69421 80.928612 4282334520
-1039.5321 -105.76247 81.336594 4282269245
-1020.5704 -106.7295 82.438446 4282597945
-1019.3422 -107.38408 82.412491 4282729281
-1008.6207 -106.22538 81.49601 4283190093
-1006.9321 -107.1189 80.773109 4282862673
-1038.311 -103.91265 80.95298 4282137918
-1037.4125 -102.74851 81.672485 4282202947
-1029.6028 -102.57249 82.083405 4282532163
-1011.181 -103.77926 81.395645 4283452238
-1009.5245 -104.70952 81.142403 4282992977
-1037.8721 -102.48848 80.151611 4282138441
-1036.3958 -101.29189 81.226181 4282137916
-1033.553 -101.6983 82.394043 4282335041
-1031.1958 -101.19846 82.28936 4282270017
-1028.9695 -101.33275 81.919609 4282072639
-1025.9143 -100.88437 81.832451 4282401342
-1023.9037 -100.93941 82.315147 4282466883
-1021.3225 -100.68508 82.277092 4282401345
-1018.7764 -100.55299 81.934708 4282861125
-1016.246 -100.8828 81.449623 4283124557
-1014.3774 -101.69466 81.138481 4283255630
-1012.302 -102.46121 81.717407 4283386959
-1035.243 -99.838814 81.295204 4282531912
-1034.2739 -98.625534 81.609749 4282269501
-1031.0491 -97.82592 81.950249 4282466876
-1027.9321 -97.738083 82.1716 4282336316
-1025.9825 -98.46978 81.852188 4282532162
-1024.1737 -98.308472 82.060738 4282729283
-1020.9252 -98.296432 82.152443 4283058250
-1019.3484 -98.89476 81.319023 4283124298
-1033.1022 -96.785637 81.357208 4282204227
-1031.2506 -96.311653 81.941399 4282466369
-1028.6204 -96.959976 81.739128 4282401088
-1026.2563 -96.462242 81.416382 4282729284
-1023.9009 -96.364548 81.243561 4283124040
-1021.67 -97.1054 81.22731 4283321415
-1019.7494 -97.456924 81.104309 4283387466
-1030.8036 -93.905838 81.710823 4282532675
-1028.5918 -92.908241 82.183609 4283123526
-1026.3556 -93.870316 81.07692 4283124044
-1024.2543 -94.854416 80.629128 4283320908
-1028.7878 -92.042068 81.32505 4282927434
-1027.3885 -92.410828 80.277039 4283649101
-1021.2809 -147.80135 83.787033 4282138943
-1025.4115 -145.25514 84.4599 4282269498
-1023.2958 -146.03973 84.47007 4282137914
-1021.1072 -146.24936 84.493439 4282269504
-1019.4611 -145.64212 84.650192 4282269502
-1028.4432 -142.89003 84.474297 4282400325
-1025.9833 -143.73692 84.077576 4282006848
-1023.777 -143.75526 83.976715 4282072639
-1021.0817 -143.69991 84.364967 4282269505
-1018.827 -143.78055 84.28064 4282203711
-1017.1736 -143.28242 83.590042 4282138173
-1032.8112 -140.21021 83.251404 4282072381
-1030.9535 -140.65894 83.827225 4282269502
-1029.202 -141.1227 84.316841 4282138431
-1026.2576 -141.83028 84.967987 4282071868
-1023.6572 -141.79366 84.710831 4282072636
-1020.6494 -141.44562 84.549576 4282007101
-1018.8047 -141.35341 84.4394 4282072640
-1016.7534 -141.44495 84.739502 4282138683
-1014.9071 -140.77606 84.683228 4282334787
-1035.4281 -137.944 83.611443 4281941559
-1033.5557 -138.37787 83.536186 4282203453
-1031.368 -138.80789 83.423065 4282334524
-1028.6838 -138.70949 83.565292 4282072636
-1026.134 -138.54771 83.863991 4282137915
-1023.7416 -138.64059 83.967941 4282269243
-1021.258 -138.79503 83.892029 4282269246
-1018.7484 -138.67261 84.426102 4282203965
-1016.3436 -138.28781 84.394424 4282268990
-1013.9888 -138.23569 83.891968 4282335037
-1038.2856 -135.62436 83.467567 4282006845
-1036.2515 -136.23505 83.582901 4281744189
-1033.7388 -136.3734 83.19796 4282137660
-1031.3815 -136.37573 82.749947 4282203195
-1028.5442 -136.47299 83.05217 4281876025
-1026.2543 -136.36229 83.084312 4282137657
-1023.7015 -136.38626 83.160538 4282071869
-1021.254 -136.28951 83.183411 4282334780
-1018.8024 -136.33308 83.14341 4282269247
-1016.2347 -136.31036 83.370575 4282138173
-1013.8209 -136.26653 83.376373 4282203965
-1012.0242 -135.86012 83.685471 4282662465
-1040.8354 -133.31659 83.314903 4282072124
-1038.7781 -133.63463 83.962265 4282137915
-1036.415 -133.70744 84.457443 4282006846
-1033.8779 -133.99625 84.728714 4282269243
-1030.9009 -133.44131 84.710709 4281941309
-1028.1991 -134.50481 84.696159 4282138171
-1026.5245 -134.33266 84.618294 4282138426
-1023.7203 -134.37032 84.395271 4281941053
-1021.423 -134.67598 83.93486 4282465085
-1018.8555 -134.90697 83.266037 4282138689
-1015.947 -134.44077 84.201775 4282204225
-1013.6402 -134.6335 84.074554 4282138167
-1011.4764 -134.53642 83.460945 4282400319
-1009.9363 -133.55768 84.365784 4282138923
-1045.6747 -130.26921 83.984047 4281876283
-1043.6542 -130.85503 84.15741 4282072381
-1041.5863 -131.35504 84.391129 4282268982
-1038.6998 -131.50005 84.431541 4282006075
-1036.8635 -131.34097 84.424843 4281940541
-1033.2643 -131.23032 84.447128 4282203196
-1031.2937 -131.6129 84.5047 4282137660
-1028.7594 -131.18832 84.751144 4282203454
-1026.4845 -131.34702 84.544968 4282137913
-1023.6155 -131.01625 84.70562 4282072123
-1021.1974 -130.80226 84.48571 4282400062
-1019.1949 -131.02025 84.6819 4282137405
-1016.1335 -130.43228 84.384758 4282006845
-1013.8813 -130.60101 84.211029 4282203967
-1011.0325 -130.44484 84.425056 4282268990
-1008.7385 -130.51172 84.379044 4282400572
-1047.79 -128.60226 83.077866 4282269502
-1046.2811 -128.87976 83.38974 4282203708
-1043.8081 -128.7496 83.225929 4282006844
-1041.3618 -128.98753 83.52932 4281809979
-1038.6865 -128.77795 83.690788 4282268986
-1036.3245 -128.65352 83.653023 4281940538
-1033.7587 -128.73116 83.724884 4282268987
-1031.2224 -128.51462 83.981277 4282072379
-1028.7482 -128.4603 84.088364 4282137914
-1026.4131 -128.55675 84.329895 4282137658
-1023.8167 -128.76422 84.354027 4282072635
-1021.2499 -128.69765 84.214104 4282072637
-1018.7688 -128.62576 84.63591 4282072893
-1016.3455 -128.69759 84.499962 4282203709
-1013.6004 -129.17726 84.704201 4282203709
-1011.1395 -129.17323 84.611664 4282007356
-1008.7527 -128.98517 84.468712 4282335294
-1007.4309 -128.44795 84.547516 4282597437
-1050.8357 -125.62962 82.825752 4282072633
-1048.7446 -125.38276 83.057091 4282203455
-1046.3322 -126.14812 82.73703 4282137656
-1043.9209 -126.3247 82.592117 4282006587
-1041.2601 -125.65129 82.625732 4282137403
-1038.8447 -126.44273 82.519211 4282268473
-1035.6296 -125.93866 83.003311 4282071867
-1033.9471 -125.87244 82.872337 4281941050
-1031.1158 -126.19872 83.000549 4282072125
-1028.7897 -126.42612 82.965157 4282203196
-1026.2039 -126.41212 83.196945 4282072377
-1023.6872 -126.38183 83.075447 4282203197
-1021.3387 -126.40298 83.07457 4282334527
-1018.7071 -126.33098 83.251633 4282138174
-1016.2223 -126.04765 83.589218 4282269245
-1013.8268 -126.3064 83.973404 4282400061
-1011.2672 -126.26804 83.987579 4282269503
-1008.6843 -126.26212 83.784561 4282335035
-1006.2483 -125.98042 83.777611 4282269501
-1004.4603 -125.46135 83.471565 4282270523
-1050.98 -123.67213 83.309326 4282269245
-1048.7415 -123.65282 83.274086 4282072380
-1046.2876 -123.50226 83.595734 4282268986
-1043.8268 -123.44559 83.68045 4281941308
-1041.2262 -123.49584 83.255363 4281875259
-1038.6849 -123.605 82.966286 4282006843
-1036.2405 -123.61974 83.173141 4281875516
-1033.7241 -123.63963 83.545128 4282006587
-1031.2219 -123.82951 83.553261 4281875517
-1028.9174 -123.66848 83.436447 4282071867
-1026.1686 -123.71945 83.339043 4282137402
-1023.5208 -123.5495 83.126205 4282203198
-1021.2253 -123.78939 83.121895 4282138175
-1018.943 -124.03143 82.860626 4282137920
-1016.1621 -124.24227 82.890297 4282465853
-1013.6643 -123.94148 82.892342 4282269244
-1011.328 -123.97904 82.728531 4282269502
-1008.7721 -123.70049 83.019417 4282204221
-1006.3262 -123.76448 82.998375 4282138426
-1003.9396 -123.65714 82.895584 4282400573
-1002.49 -122.99753 83.507019 4282401338
-1050.4839 -121.98557 83.229347 4282596922
-1048.6573 -121.37935 82.823746 4282072638
-1046.6404 -121.31786 82.867844 4282006844
-1043.3258 -121.64761 83.203453 4281941055
-1041.6897 -121.60781 83.188766 4281613374
-1037.8965 -122.26809 83.153648 4282268228
-1035.729 -121.85294 83.108871 4282072125
-1033.6605 -121.46453 83.198677 4282137661
-1031.2152 -121.26421 83.239403 4282072379
-1028.8185 -121.4858 83.148315 4282137916
-1026.3368 -121.31406 83.164612 4281810239
-1023.7961 -121.32378 83.243561 4282137916
-1021.2176 -121.10343 83.626244 4282269249
-1018.8517 -121.21426 83.912537 4282137918
-1016.3145 -121.15724 83.338272 4282203966
-1013.6879 -121.14645 83.399597 4282269245
-1011.2751 -121.2708 83.133705 4282072892
-1008.7906 -121.10082 84.044518 4282400321
-1006.3188 -121.10222 83.900291 4282269758
-1003.8689 -120.85532 83.924484 4282400831
-1001.6616 -120.87102 84.188278 4282335293
-1048.0835 -119.08393 83.191719 4282268733
-1046.2072 -118.68931 84.012978 4282072125
-1043.9561 -118.95592 84.409248 4282203708
-1041.8176 -118.78121 84.315422 4282072380
-1038.4382 -119.22381 84.189667 4281941822
-1036.5143 -118.92783 84.204033 4281809725
-1034.0466 -118.88703 84.367836 4282137917
-1031.2445 -118.75948 84.758446 4282007356
-1029.339 -118.52541 84.733414 4281811002
-1025.6062 -119.24225 83.599121 4282203706
-1023.9428 -118.96491 83.81218 4282269502
-1021.1935 -119.49131 82.978218 4282203711
-1018.7461 -119.47452 83.313965 4282400572
-1016.2457 -119.44633 83.07798 4282335037
-1013.7739 -119.36348 82.940247 4282335041
-1011.0955 -119.07564 83.306297 4282204223
-1008.792 -118.82551 83.621925 4282335806
-1006.249 -118.75429 83.950432 4282335552
-1003.6725 -118.95013 83.848946 4282401086
-1001.2579 -118.94052 83.772415 4282401089
-999.46753 -118.605 82.877838 4282662976
-1046.0183 -116.35583 83.755432 4282071869
-1043.8193 -116.02114 84.145195 4282072381
-1041.4071 -116.05499 84.153458 4282071864
-1038.786 -115.24228 84.16684 4282202932
-1036.379 -115.58559 84.502625 4281941049
-1033.928 -115.92628 84.331718 4282268986
-1031.2025 -115.73308 84.395065 4282138173
-1028.7654 -115.66596 84.438347 4282137913
-1026.2166 -115.43132 84.272438 4282137659
-1023.3876 -115.37266 84.313446 4282531395
-1021.3303 -115.46063 84.506203 4282400571
-1018.7902 -115.49682 84.616516 4282465852
-1016.3199 -115.63725 84.295517 4282204221
-1013.9069 -115.52207 84.443367 4282335037
-1010.7967 -116.04998 84.580162 4282531903
-1008.7132 -116.28247 84.434143 4282401088
-1006.5594 -116.38309 84.533882 4282335296
-1003.9152 -116.32542 84.648247 4282532415
-1000.9531 -116.39328 84.349098 4282663232
-998.84406 -116.20505 84.760216 4282598467
-997.45227 -115.79861 84.90802 4282860104
-1045.5031 -114.90939 83.118393 4281940300
-1043.5786 -114.21365 82.903183 4281809980
-1041.1305 -114.2976 82.878708 4281940790
-1038.8584 -114.43613 82.853867 4282137660
-1036.1573 -114.34431 83.445786 4282006845
-1033.7136 -114.36582 83.279732 4282072380
-1031.2451 -114.51974 83.213768 4282138174
-1028.6289 -114.34621 83.159958 4282006845
-1026.21 -114.241 83.346306 4282006587
-1023.6646 -113.90506 83.538673 4282203457
-1021.2408 -113.8741 83.557899 4282203967
-1018.7274 -113.75145 83.731827 4282269244
-1016.2136 -113.71111 83.530426 4282335553
-1013.792 -113.67629 83.682991 4282400320
-1011.2908 -113.62943 83.955902 4282204222
-1008.6555 -113.57326 84.434471 4282335294
-1006.2723 -113.69324 84.488762 4282401088
-1003.9906 -113.67621 84.53614 4282597697
-1000.7222 -113.94984 84.877777 4282532932
-998.71362 -113.74829 84.119278 4282992968
-997.27692 -114.48329 84.002945 4283320640
-1042.9156 -111.61105 82.840004 4282137911
-1041.2651 -111.13803 83.431313 4282072375
-1038.8206 -111.04379 83.998199 4281941049
-1036.2582 -111.09412 83.669441 4282137658
-1033.7314 -111.01409 83.891487 4282072639
-1031.4409 -110.85591 84.016464 4282203455
-1028.6771 -110.70942 83.977051 4282334530
-1026.1716 -110.56583 84.299606 4282007103
-1023.2937 -111.46812 83.52655 4282400320
-1021.1851 -111.01537 83.805481 4282269246
-1018.8559 -111.02115 83.58316 4282204224
-1016.3136 -110.99643 83.465469 4282400828
-1014.5267 -111.49636 82.508347 4282466103
-1010.837 -111.50635 83.046501 4282203967
-1008.8006 -111.87553 83.613533 4282401090
-1006.0006 -111.70578 83.345222 4282598209
-1003.9833 -111.53652 83.299965 4282664003
-1001.4346 -111.97882 83.986938 4282992711
-999.84912 -112.29517 83.565956 4283714380
-1040.8003 -109.11692 83.236542 4282138174
-1038.6829 -108.7096 83.456123 4282072379
-1036.321 -108.72731 83.358612 4282138174
-1033.704 -108.78028 83.558891 4282072637
-1031.1941 -108.61468 83.859932 4282334526
-1028.7693 -108.62383 83.809586 4282335036
-1026.2843 -108.69518 83.582161 4282072895
-1023.6938 -108.59122 84.392517 4282335549
-1021.3285 -108.76944 84.180275 4282269761
-1018.8521 -108.72741 84.242523 4282400829
-1016.1125 -108.59677 84.170952 4282400832
-1013.6931 -108.31253 84.146118 4282335809
-1011.2173 -108.30924 84.386902 4282335813
-1008.8633 -108.34438 84.422791 4282730055
-1006.172 -108.78705 83.98243 4282599494
-1004.559 -109.09303 83.154587 4282861899
-1040.1646 -107.3143 83.252121 4282268992
-1038.5317 -106.34556 82.942375 4282138425
-1036.2069 -106.14085 83.478943 4282137916
-1033.7621 -106.16998 83.995094 4282465852
-1031.1533 -106.15697 84.071495 4282269502
-1028.7629 -106.16819 84.044495 4282596929
-1026.2352 -106.01327 84.624199 4282400058
-1023.6865 -106.2807 84.372505 4282400830
-1021.2612 -106.36625 83.545868 4282400836
-1018.8365 -106.26904 84.034981 4282532160
-1016.3888 -106.49234 84.009872 4282336065
-1013.4097 -106.50981 83.882172 4282598210
-1011.0258 -106.36315 84.115257 4282926150
-1009.0766 -106.83714 83.60434 4282861642
-1007.2202 -107.30582 83.913635 4283058760
-1037.8961 -104.28252 82.857857 4281876284
-1036.2346 -103.73146 83.360512 4282138171
-1033.7662 -103.6824 83.692429 4282334782
-1031.2294 -103.60291 83.866005 4282269757
-1028.7395 -103.68318 83.575455 4282531644
-1026.2941 -103.64832 84.493835 4282269502
-1023.7819 -103.63639 84.450386 4282335553
-1021.1782 -103.6482 84.376152 4282335809
-1018.9762 -103.67688 84.573135 4282466625
-1016.2487 -103.15841 84.743668 4282729541
-1013.5986 -103.45206 84.246101 4282992196
-1011.7343 -104.11987 83.678223 4283058761
-1035.6394 -101.47245 83.142326 4282137919
-1033.7925 -101.09925 83.027206 4282270014
-1031.4454 -101.54655 82.751991 4282138434
-1027.7001 -101.50908 82.760391 4282073152
-1026.4038 -101.63729 82.762093 4282466623
-1023.5469 -101.68057 82.908302 4282401345
-1021.2233 -101.83194 83.251419 4282532671
-1018.7101 -101.6782 83.580193 4282467140
-1016.3128 -101.86472 83.460037 4283057992
-1014.0808 -102.15566 83.785797 4283583051
-1033.4597 -98.828552 83.31826 4282466112
-1031.3607 -98.728951 83.603539 4282335295
-1028.8186 -98.590591 83.517784 4282269761
-1026.9534 -98.913185 82.995735 4282335557
-1023.215 -98.915237 82.886635 4282794306
-1021.4442 -98.635544 82.875206 4282860868
-1019.1819 -99.51416 82.889786 4282927175
-1033.0862 -97.320374 82.671738 4282401856
-1030.9534 -95.427277 82.580948 4282728764
-1028.8751 -95.545624 83.162819 4282401601
-1026.7943 -95.311852 83.056152 4282598463
-1030.719 -94.564156 82.745461 4282663492
-1028.7069 -93.937874 83.055367 4282598467
-1026.7755 -94.399048 82.983177 4282991942
-1023.6765 -145.4976 85.146011 4282334267
-1021.36 -145.74922 85.128387 4282400578
-1019.4391 -145.47459 85.251022 4282269248
-1027.7404 -143.03117 85.181313 4282007105
-1027.4165 -142.9856 85.206116 4281089345
-1023.4791 -144.58885 85.522507 4282268732
-1021.9256 -144.3961 85.481148 4282531392
-1017.9751 -144.06387 85.978149 4282860094
-1028.1155 -141.0674 85.321991 4282203713
-1026.3986 -140.95374 85.447472 4282203197
-1023.7374 -140.856 85.668129 4282203708
-1021.7786 -141.23051 85.204704 4282072128
-1016.243 -140.52339 85.462593 4282335038
-1014.858 -140.12155 85.789917 4282794307
-1028.8119 -139.3781 85.0047 4282466621
-1026.5649 -139.48326 85.164818 4281875517
-1023.8829 -139.81316 85.258156 4282202939
-1021.6858 -139.90764 85.079063 4282400069
-1017.7902 -139.04286 85.748016 4282335811
-1016.2114 -139.40952 85.415565 4282465857
-1014.7852 -139.26952 85.558006 4281942334
-1035.7897 -133.38643 85.198654 4281875516
-1033.7606 -133.35799 85.099152 4282072633
-1031.5176 -133.80339 85.408081 4282072121
-1028.8856 -133.51198 85.380463 4282203451
-1026.1116 -133.36095 85.348831 4282137916
-1023.7349 -133.2122 85.674744 4282006591
-1021.2545 -133.14803 85.866501 4282465600
-1018.7328 -133.23564 85.850571 4282334523
-1016.2262 -133.07407 86.034348 4282138432
-1013.7672 -133.0536 85.980408 4282073150
-1011.3737 -133.02914 86.079689 4282269755
-1009.8434 -132.59116 86.581726 4282073412
-1041.1117 -130.58502 85.415306 4282268977
-1038.8962 -130.79657 85.468544 4281941306
-1035.8251 -131.1703 85.223854 4282071607
-1034.3242 -131.34286 85.108429 4282202938
-1031.1962 -130.55818 85.079544 4282006587
-1028.9026 -131.47861 85.061913 4281875518
-1025.8168 -130.98598 85.035316 4282137659
-1023.8835 -131.80064 85.65892 4282006589
-1021.4214 -131.80365 85.615562 4282203713
-1018.4847 -131.68118 85.533066 4282203452
-1016.2535 -131.44107 85.669914 4282138173
-1013.686 -131.48666 85.857193 4282400830
-1011.4212 -131.54588 86.267937 4282269245
-1009.2812 -131.14423 85.693962 4282531649
-1040.031 -129.96315 85.010864 4282334017
-1038.3256 -129.83179 85.319687 4282007098
-1035.7943 -129.69394 85.186806 4282136892
-1034.6011 -129.52133 85.115417 4281941052
-1031.2908 -129.6234 85.258896 4282007360
-1028.8795 -129.6114 85.111412 4281941563
-1026.0804 -129.17241 85.294609 4282137406
-1023.878 -128.95764 85.269897 4281942072
-1020.3415 -128.7084 85.140312 4282137667
-1018.736 -128.50655 85.085152 4282203713
-1016.4111 -128.59056 85.06604 4282270014
-1013.8911 -128.36127 85.215759 4282335294
-1011.1829 -127.92332 85.318306 4282269497
-1008.7382 -127.85098 85.303673 4282204225
-1006.7143 -128.00041 85.534554 4282466109
-1013.1328 -127.42489 85.177719 4282204483
-1011.3281 -127.44245 85.30558 4282203201
-1006.1434 -126.75029 85.236679 4282335042
-1002.2659 -120.64858 85.066673 4282662980
-1043.4407 -118.21497 85.247993 4282399809
-1040.6201 -118.48595 85.124985 4282203193
-1039.1063 -118.32374 85.35067 4281678907
-1036.0735 -118.24408 85.283562 4281744442
-1033.3488 -118.12628 85.347267 4281613627
-1031.2474 -117.76077 85.365227 4281482304
-1028.4583 -117.93187 85.668808 4281744956
-1026.3081 -118.09016 85.808815 4282072379
-1023.5051 -117.79744 85.272308 4282138173
-1021.2368 -117.8845 85.680374 4282597437
-1018.6958 -117.91275 85.459488 4282203711
-1016.3781 -117.83369 85.442444 4282269502
-1013.8882 -117.51903 86.556129 4282466366
-1011.8716 -117.60394 85.708511 4282072896
-1043.4672 -116.90874 85.119492 4282203196
-1040.3796 -116.65465 85.140518 4281941053
-1038.7946 -116.62618 85.354782 4282072376
-1036.3218 -116.31876 85.313644 4281941049
-1033.2837 -116.82324 85.515999 4282203707
-1031.4149 -116.78969 85.430092 4281940797
-1028.7433 -116.84385 85.36969 4282203449
-1026.2869 -116.50926 85.655899 4282072123
-1023.7859 -116.26627 85.466667 4282138178
-1021.2197 -116.6339 85.514046 4282203967
-1018.8544 -116.61091 85.456215 4282203197
-1016.2792 -116.53984 85.482872 4282269501
-1013.6331 -116.46037 86.10157 4282466110
-1011.7657 -116.35268 85.771477 4282269502
-1005.8521 -115.54439 85.028778 4282466620
-1002.8672 -116.18929 85.222954 4282663736
-1001.6374 -116.11591 85.246796 4282728766
-998.63037 -115.71493 85.22538 4282729026
-997.4574 -115.25002 85.141113 4282663997
-1010.0491 -114.18248 85.207123 4282597438
-1009.0842 -114.15843 85.173714 4282466111
-1006.0875 -114.59684 85.017273 4282793025
-1002.7605 -113.9839 85.305038 4282794816
-1001.2699 -113.72081 85.367615 4282795074
-998.98029 -114.31277 85.235176 4282533187
-997.46985 -114.76753 85.129333 4282665021
-1030.1547 -110.42226 85.092407 4282530885
-1029.8329 -110.41418 85.081276 4282596672
-1023.6009 -110.32487 85.526451 4282465857
-1022.3785 -110.4782 85.487915 4282531136
-1013.8593 -110.10394 85.182228 4282400832
-1011.7689 -110.05219 85.105637 4281876803
-1002.356 -112.33746 85.295471 4282990915
-1023.7635 -109.56416 85.218834 4282335551
-1022.3951 -109.83455 85.475189 4282270528
-1017.992 -109.08578 85.258095 4282073152
-1016.8063 -109.02654 85.270859 4282203709
-1013.8205 -109.4593 85.279457 4282532420
-1011.2652 -109.15981 85.210541 4282204226
-1008.5521 -109.05148 85.456734 4282663748
-1007.2844 -108.95553 85.06797 4282270534
-1018.0125 -105.05337 85.226418 4282990915
-1016.1138 -105.24216 85.214859 4282663487
-1014.1357 -105.5998 85.111 4282401345
-1011.5514 -105.75717 85.129471 4282926405
-1030.6224 -104.71451 85.011169 4281942325
-1021.9241 -103.55862 85.164978 4282663747
-1018.0413 -104.09477 85.140495 4282662722
-1016.2581 -104.36131 85.187752 4282597699
-1014.1624 -104.46751 85.133812 4282729023
-1011.6608 -104.72433 85.066879 4283123786
