# .PCD v0.7 - Point Cloud Data file format
VERSION 0.7
FIELDS x y z rgba
SIZE 4 4 4 4
TYPE F F F U
COUNT 1 1 1 1
WIDTH 1146
HEIGHT 1
VIEWPOINT 0 0 0 1 0 0 0
POINTS 1146
DATA ascii
-982.19177 100.15567 50.882385 4282071078
-987.82483 104.61684 51.511768 4282660908
-986.22333 103.33401 51.284317 4282332973
-984.69318 102.62527 50.450439 4281677093
-990.43713 106.81325 51.876007 4280955945
-988.97687 105.96054 51.108494 4282070828
-993.09583 109.36902 51.311035 4282463537
-992.0625 108.56973 51.178139 4282463277
-1000.2078 110.39772 51.177734 4281807162
-999.1618 110.94904 51.317791 4282068518
-996.07422 111.86008 51.308243 4282134820
-994.28345 110.46564 51.555603 4281873964
-1000.4255 114.39394 50.993908 4282003241
-998.92511 114.18668 51.428337 4282068776
-997.06738 112.92904 50.81945 4281741864
-970.57257 84.633835 53.191967 4282004765
-970.78046 86.230812 53.976105 4281938215
-969.64453 86.665329 53.413429 4282135590
-970.74127 88.452538 54.174084 4281938473
-969.69257 88.174629 53.595459 4282069538
-973.59967 91.332603 54.396648 4282004268
-971.88086 90.302711 54.097431 4281872428
-977.75244 94.19725 54.270489 4282396967
-976.49329 93.927422 53.989773 4281741094
-974.69708 92.887634 53.78738 4282134576
-980.44806 96.886803 54.802113 4282266406
-978.83344 96.230179 54.179111 4282201126
-977.1554 95.183899 52.967377 4282005033
-985.39301 99.894203 54.551758 4282530090
-983.30078 99.211975 54.63974 4282201644
-981.60773 98.608826 53.886318 4282594864
-985.99792 101.63313 54.088696 4282594860
-984.11536 100.79758 53.841576 4282136113
-990.81287 104.23279 54.550903 4282595359
-988.49677 104.16499 54.081543 4282201899
-986.93909 102.99883 53.657738 4282464045
-993.22986 107.10997 53.706726 4282333743
-991.09778 106.46468 54.227852 4282135850
-989.47992 105.63105 53.58112 4282528809
-998.09985 109.72885 54.19751 4281150761
-995.25867 109.67978 54.822632 4281545778
-993.65265 108.81664 53.925655 4282266664
-992.03833 107.88015 53.386311 4282333226
-998.26349 111.54243 53.884373 4282003491
-996.39966 111.18021 53.826221 4282135595
-994.64349 110.11151 53.37207 4281741614
-1000.2406 113.5955 53.379848 4281872928
-999.00677 113.1226 53.629494 4281807143
-997.38525 112.62286 52.726501 4281676844
-971.78925 86.765663 56.529747 4282266653
-973.14758 89.409592 56.398216 4282201130
-971.82617 88.954994 56.004032 4281611046
-975.72504 91.851814 56.385529 4281937944
-973.90002 90.81636 55.60001 4282004268
-972.2052 90.049591 55.628052 4282133801
-978.66644 94.398918 56.033897 4282200102
-976.25354 92.994736 55.856102 4281740831
-983.14209 97.425873 56.948761 4282200627
-981.15405 96.833069 55.810871 4282463788
-979.39203 95.605766 55.51886 4282004512
-986.18005 99.9655 57.227936 4282530341
-983.8255 98.671989 56.059254 4282529583
-982.05524 98.078987 55.450142 4282267698
-987.84912 101.85544 56.022736 4282399023
-986.29449 101.10323 55.918045 4282660392
-984.50934 100.21942 55.044983 4282398511
-990.66705 104.21933 56.383987 4282398501
-989.09375 103.3847 55.804726 4282398508
-993.66254 106.983 56.187206 4282594603
-991.57477 105.68242 56.174881 4282397992
-989.81793 105.17716 55.678711 4283118882
-998.19366 109.0885 56.053619 4281609514
-996.46173 109.63406 56.044956 4282200877
-994.2876 108.32729 55.759377 4282529067
-997.56665 110.77771 56.279221 4281675814
-996.81702 110.44265 55.546165 4282200618
-999.47467 112.89447 55.257935 4281740845
-972.2923 87.127327 59.698334 4282593561
-975.17267 89.985489 58.415894 4281481005
-973.57867 88.981415 58.386261 4282135851
-972.26398 88.119576 58.272869 4282003738
-976.62341 91.387253 59.219776 4281741855
-974.85321 90.323143 57.886005 4281545258
-980.23376 94.711647 59.704834 4282397481
-977.55304 92.535873 57.838562 4282067735
-977.05151 92.647636 59.264618 4282135842
-983.01367 97.077957 58.498024 4282266927
-980.24225 95.041168 59.698303 4282004265
-985.49609 99.746712 58.274261 4282529842
-983.98425 98.484138 57.783264 4282726445
-988.75458 101.90379 58.354881 4282266669
-986.16248 100.27139 58.748749 4282595121
-991.62555 104.25256 57.7477 4282791721
-994.2204 106.49802 58.183105 4282791722
-992.11029 105.78466 57.533936 4281676073
-997.77325 108.87832 58.852943 4282069291
-996.62585 108.61614 58.742146 4282200869
-975.4906 89.80484 60.125977 4281481004
-973.91443 88.957275 60.535809 4282397736
-972.13696 87.503098 60.175659 4282462227
-976.32397 91.090294 61.04155 4281872676
-980.21808 94.295471 60.215637 4282529584
-979.48755 93.854095 60.809326 4282397483
-982.90894 96.512482 60.386597 4282070816
-981.1167 95.453941 61.138 4282136112
-986.29102 99.180779 61.434048 4282463272
-984.90912 97.827477 61.080322 4282725166
-987.79407 100.96017 60.754868 4282200352
-987.28259 100.99669 61.77002 4282725157
-991.61981 103.76778 62.267212 4282725935
-993.737 105.64583 61.727463 4282266905
-998.02612 108.2615 60.897766 4282462760
-996.6947 107.96237 61.090271 4282595843
-975.96277 89.613861 63.529846 4281676322
-973.46094 88.056961 63.910034 4282528814
-978.59521 92.200592 64.125893 4281938192
-977.08722 91.12561 63.122643 4281938978
-978.82935 92.869888 64.340958 4281938472
-985.86218 98.678299 64.536438 4282594093
-990.87311 102.21169 64.494446 4282332980
-989.21887 100.63014 63.195923 4281939499
-993.09558 104.81833 63.516388 4282267174
-991.58173 103.50846 63.649555 4282529843
-992.61359 105.20544 63.491821 4281873199
-973.77966 87.943665 66.30545 4282594348
-978.54987 92.194481 66.332733 4281609251
-977.28186 90.597244 66.405853 4281872411
-981.03351 94.199364 65.837379 4282200876
-987.00629 99.343849 65.708603 4282659627
-992.84229 104.07414 66.397339 4282398005
-1059.0715 30.062378 69.248718 4283585367
-1060.8788 38.98534 69.18026 4283584597
-1058.8688 41.382637 69.042282 4283781457
-1057.6884 42.601196 69.617188 4283913042
-1056.2181 44.155415 69.369896 4283781975
-1055.098 45.322746 69.901794 4284306258
-1052.9185 48.130497 69.383087 4283782479
-1052.1451 48.878345 69.646423 4283520344
-1050.4094 51.281548 68.942078 4284109149
-1049.6669 51.695988 69.967773 4284043346
-1048.3853 53.041275 69.991882 4283912793
-1047.2014 54.820602 69.049927 4283455049
-1046.5632 55.65797 69.071411 4283389017
-1043.8478 58.868786 69.113686 4283978836
-1040.6178 62.226677 69.489441 4283717210
-1040.1366 62.731224 69.510437 4283716439
-1038.7759 64.247925 69.567612 4283913820
-1037.855 65.598976 68.84568 4283520601
-1036.7169 66.659775 69.756714 4283782487
-1035.5476 68.159767 69.103302 4283848022
-1034.3445 69.232155 69.325699 4284044888
-1032.7041 71.574455 68.787231 4283454294
-1031.9058 72.056519 69.421051 4283782741
-1031.3977 72.764084 69.128662 4283914066
-1028.3301 75.976158 69.636688 4283978838
-1025.8185 79.16568 69.199814 4283651413
-1023.5784 81.98037 68.895813 4284110168
-1022.8945 82.897484 68.550232 4284176474
-1021.4827 84.003357 69.808411 4283848795
-1020.566 85.15493 69.186554 4283651928
-1019.4271 86.33918 69.59201 4283980120
-1017.7909 88.434631 69.365829 4284044890
-1016.8904 89.285378 69.474586 4283651410
-974.41284 87.51413 69.430115 4281875273
-1015.1755 91.661575 69.000336 4283914076
-1014.7693 91.847252 69.573608 4283913821
-978.84119 91.542191 68.663116 4282200608
-977.44104 90.780983 67.772278 4281873437
-1014.0339 92.679184 69.442566 4283914327
-979.55292 92.816895 68.715919 4282462761
-1011.8203 95.427841 69.318527 4284045662
-1008.6952 99.144119 68.916595 4284045918
-986.21185 98.010162 68.693703 4282266919
-1006.4929 101.5201 69.47493 4284110685
-1005.3708 103.07086 69.235985 4284438876
-1003.9924 104.62725 69.297615 4284176735
-993.44617 103.30991 67.648071 4282466112
-992.08569 102.81817 69.352234 4282530102
-1003.2192 105.56313 68.966904 4284373596
-1002.186 106.41157 69.313927 4284242263
-996.60577 106.41045 68.508301 4281940275
-1001.0259 108.02522 69.418335 4284045653
-1051.9832 24.735004 71.574646 4283978581
-1020.3907 25.888542 72.354492 4284373081
-1058.4889 30.312569 71.733765 4283585108
-1015.0153 32.216217 72.040405 4283848024
-1061.2126 37.48671 72.362915 4283651154
-1060.7052 38.436771 71.195557 4283584596
-1059.5164 39.617195 71.849762 4283454543
-1058.5249 40.876644 71.374557 4283846996
-1057.3148 42.269531 71.575714 4283520083
-1056.0625 43.708969 71.162537 4283650647
-1054.9218 44.784897 71.537476 4283192661
-1055.0427 45.026249 70.384521 4283782485
-1054.0757 46.088188 71.575439 4283651159
-1052.6467 48.04866 70.470917 4283716945
-1051.5261 49.007328 71.411606 4283651156
-1050.1729 50.62384 71.287628 4283585109
-1049.3375 51.600227 71.367416 4283716179
-1047.9675 52.896202 71.652893 4283912787
-1046.8131 54.318466 71.405693 4283520085
-1045.5648 55.928284 71.157127 4283650392
-1044.3307 57.267426 71.290016 4284109909
-1043.304 58.554916 71.302536 4283978580
-1042.1395 59.492676 72.039528 4283912787
-1040.5454 61.706486 71.209671 4283782487
-1039.9354 62.201134 71.815674 4283520083
-1038.6669 63.595234 71.459068 4283847512
-1037.3774 64.883652 71.918823 4283584855
-1037.6876 65.287361 70.181 4283716695
-1036.3024 66.414543 71.372734 4283978579
-1035.2175 67.686348 71.140778 4283848281
-1033.9187 68.892609 71.415192 4283913559
-1032.6658 70.698875 71.272202 4283716178
-1031.5056 71.35482 71.72686 4283716697
-1030.4731 72.917992 71.272942 4283978585
-1028.4824 74.910446 71.833801 4283061846
-1027.9321 75.80439 71.171303 4283782486
-1027.1117 76.461388 71.745399 4283717204
-1025.7267 78.464439 71.2034 4283782484
-1024.7014 79.496788 71.463158 4283782233
-1023.2706 81.276665 71.343185 4284175192
-1022.3671 82.00293 71.948715 4284241238
-1022.5593 82.521408 70.327393 4284045400
-1021.2408 83.594025 71.470856 4284045401
-1019.9241 84.90657 71.71521 4283914588
-1019.0373 86.182533 71.47303 4283717463
-976.35229 87.380287 71.666626 4282731341
-973.96967 86.767738 71.247139 4282596405
-1017.9204 87.7108 70.853577 4283520857
-1016.5059 89.013405 71.31366 4283848024
-977.70447 89.472107 71.920197 4283190871
-976.87939 88.756668 70.949982 4282201395
-1015.1869 90.729202 71.506393 4284044117
-1014.1759 91.698494 71.638298 4283979100
-980.37964 92.471474 72.093262 4281807923
-979.37958 91.218391 71.353943 4282529062
-1013.2065 92.936539 71.450623 4284110167
-1011.8054 94.669525 71.536232 4284242521
-983.91589 94.64006 71.849449 4283583311
-981.38586 93.340874 71.29657 4282137380
-1010.6274 96.027817 71.224068 4284176215
-1009.4366 96.908417 72.300018 4283979606
-984.20532 95.427719 71.23143 4284170309
-1008.2373 98.639336 71.286476 4283979869
-1007.0948 99.382141 71.939308 4284045661
-988.52655 98.967949 71.218559 4283384903
-987.35242 97.923683 71.659927 4283319885
-1006.1084 101.24603 71.411003 4284110685
-991.01715 101.33421 71.66391 4283188026
-1005.1848 102.65091 70.93502 4283979864
-1003.6934 104.04609 71.489326 4284242267
-993.88 103.87212 71.647606 4282794044
-1002.863 105.202 70.809021 4284110428
-1001.7466 106.08109 71.672844 4284242265
-997.80817 106.60429 72.089203 4284109902
-996.92914 106.20035 71.21521 4283385926
-1000.494 107.86827 70.558044 4284503894
-999.69006 107.88937 72.239304 4284438611
-1035.7773 11.529813 74.372368 4283584852
-1034.2371 11.592082 74.691406 4283782225
-1038.7024 13.925893 74.211815 4283913045
-1036.0587 13.17389 74.537781 4283847254
-1034.9102 13.287816 74.955872 4283847250
-1031.6626 13.085548 74.731506 4283519568
-1041.3654 16.975111 74.68251 4283519572
-1038.9575 16.257381 74.795334 4283650389
-1045.2397 19.64938 74.195679 4283388500
-1043.4978 19.116074 74.278244 4283715923
-1041.3351 18.851557 74.643906 4283585106
-1039.1282 18.902901 74.708626 4283650391
-1035.3875 19.286104 74.880669 4283716176
-1033.8279 19.326099 74.826828 4283650391
-1031.8138 19.376936 74.757156 4283716690
-1029.8702 19.90786 74.776489 4283715670
-1026.4325 19.645147 74.585091 4284044376
-1046.057 21.456924 73.783165 4283584849
-1043.8579 21.142756 74.275589 4283519060
-1041.1702 21.238146 74.315834 4283715921
-1038.6924 21.12734 74.652092 4283585109
-1036.1245 21.305977 74.811607 4283781459
-1033.7401 21.038008 74.780434 4283584851
-1031.7086 21.264294 74.727844 4283585364
-1029.6531 21.295671 74.641586 4283650393
-1026.6542 20.282589 74.980576 4283847256
-1050.5759 24.540873 73.765381 4283584852
-1048.6282 23.935911 74.265617 4283518803
-1046.3453 23.711344 74.67981 4283650129
-1044.1429 23.446705 74.651917 4283650389
-1041.4441 23.612017 74.629936 4283650640
-1038.8685 23.349846 74.871353 4283518802
-1035.92 23.492088 74.760155 4283650640
-1034.1394 23.290649 74.815422 4283584334
-1030.7003 23.765978 74.631401 4283650386
-1029.8621 23.422844 74.567924 4283519571
-1025.7394 24.173145 74.778839 4282864468
-1023.1455 23.455332 74.317581 4283584851
-1052.9529 26.840021 73.279022 4283912534
-1051.2128 26.380766 74.089775 4283584851
-1048.7332 26.205063 74.516197 4283650386
-1046.202 26.215239 74.523674 4283584338
-1043.7429 26.26128 74.737808 4283519058
-1041.3619 26.379492 74.491646 4283584595
-1038.7815 26.471157 74.667297 4283584850
-1036.2021 26.667036 74.657135 4283453524
-1034.1954 26.838963 74.707985 4283715921
-1030.9813 26.306341 74.673332 4283781712
-1028.5001 26.812273 74.517479 4283519062
-1026.3108 26.704462 74.531815 4283847252
-1023.7094 26.972357 74.799866 4283715921
-1020.9548 26.60886 74.585579 4283913558
-1056.0386 29.566511 73.812958 4283650389
-1053.7452 28.886059 73.976425 4283715669
-1051.2135 28.769081 73.998192 4283519058
-1048.7269 28.651127 74.125206 4283453779
-1046.2847 28.719564 74.073128 4283453523
-1043.723 28.761271 74.222069 4283584593
-1041.2375 28.735256 74.24408 4283519314
-1038.6794 28.737553 74.464226 4283584851
-1036.2196 28.757345 74.401314 4283519315
-1033.927 28.923357 74.596886 4283584852
-1031.2823 28.939953 74.712921 4283650130
-1028.568 28.631618 74.528831 4283650643
-1026.2301 28.750175 74.581291 4283781717
-1023.7263 28.651659 74.715538 4283715924
-1021.1973 28.431374 74.797409 4283782226
-1019.1538 28.880136 74.677467 4283913045
-1058.5166 31.579819 74.197212 4283650128
-1056.2831 31.211542 74.28701 4283650385
-1053.7087 31.183123 74.541191 4283584849
-1051.2013 31.247726 74.290108 4283584594
-1048.7473 31.320105 74.591309 4283453520
-1046.3494 31.193037 74.750832 4283387986
-1043.6097 31.126438 74.496613 4283453267
-1041.171 31.052809 74.214806 4283518803
-1038.7668 31.133896 74.124809 4283584596
-1036.1917 31.261442 74.052803 4283650133
-1033.7913 31.285666 74.23436 4283584595
-1031.2869 31.231916 74.307846 4283453778
-1028.6984 31.203943 74.323135 4283584852
-1026.2864 31.22456 74.313057 4283584851
-1023.8347 31.250467 74.360184 4283519314
-1021.0776 31.501255 74.695015 4283584851
-1018.9966 31.508289 74.777107 4283847252
-1016.7026 32.085312 74.587784 4283781974
-1060.761 34.391182 74.207275 4283585105
-1058.7759 33.794262 74.409012 4283584592
-1056.7745 33.732899 74.658455 4283650389
-1053.0209 34.142075 74.961632 4283584847
-1051.2904 33.795628 74.859863 4283650385
-1048.8483 33.672157 74.872948 4283519058
-1046.7898 33.234039 74.915466 4283584593
-1043.8414 33.725899 74.81945 4283715663
-1035.7157 33.448334 74.574333 4283715925
-1033.7542 33.586647 74.496078 4283715667
-1031.2758 33.482735 74.50695 4283453780
-1028.7834 33.753082 74.367722 4283781716
-1026.4843 33.777431 74.356621 4283584852
-1024.3513 33.604111 74.357246 4283387987
-1020.7333 34.750694 74.945793 4283781208
-1018.7017 34.357483 74.942215 4283650903
-1016.5527 33.780708 74.804001 4283781974
-1014.4379 34.767746 74.914001 4283781716
-1060.7629 36.246899 73.989441 4283716179
-1058.7742 36.150936 74.089966 4283584847
-1056.4041 36.449215 74.455086 4283716177
-1053.6095 36.377201 74.527 4283715925
-1051.2515 36.230545 74.38842 4283584853
-1048.6941 36.208973 74.670219 4283584595
-1046.16 36.432632 74.729897 4283584595
-1043.9767 36.511456 74.613419 4283650386
-1041.283 36.510342 74.583221 4283519059
-1038.7516 37.23632 74.92852 4283846741
-1035.9027 36.680031 74.544365 4283715669
-1033.6411 36.286221 74.299377 4283650132
-1030.9219 36.417858 74.69558 4283584852
-1028.8354 36.291901 74.446327 4283519317
-1026.308 36.215904 74.620186 4283650643
-1023.6887 36.238571 74.151596 4283584853
-1021.2646 36.223896 74.571037 4283650388
-1018.7301 36.259388 74.454887 4283715923
-1016.3829 36.247993 74.505699 4283781973
-1013.7409 36.227882 74.646873 4283716438
-1011.9929 36.637905 74.092323 4283913044
-1060.3575 37.798447 73.284737 4283650389
-1058.6591 38.71125 73.729271 4283453777
-1056.3253 38.648006 73.677437 4283585105
-1053.7521 38.664413 74.011948 4283715666
-1051.2039 38.775585 74.098587 4283649874
-1048.804 38.755516 74.143784 4283584847
-1046.1959 38.741955 74.336464 4283519314
-1043.7473 38.741596 74.191765 4283387987
-1041.2896 38.694481 74.01548 4283519058
-1038.7485 38.753689 74.174011 4283584594
-1036.2551 38.76915 74.289093 4283519058
-1033.8177 38.796993 74.539566 4283519057
-1031.2164 38.821472 74.627708 4283650387
-1028.8031 38.656273 74.680954 4283453778
-1025.1256 37.590721 74.249451 4284371535
-1023.1993 38.582554 74.664581 4283716181
-1021.2083 38.577782 74.917336 4283650643
-1019.2153 38.066063 74.788017 4283846997
-1015.7328 38.560078 74.464661 4283650901
-1013.8049 38.760521 74.391449 4283453780
-1011.4949 38.800133 74.48896 4283781971
-1009.5513 39.353386 74.061569 4284174929
-1057.8269 40.527378 73.683556 4283781453
-1056.2061 41.172821 73.86795 4283650387
-1053.7622 41.248146 74.12648 4283716177
-1051.1957 41.240616 74.200363 4283584596
-1048.7191 41.186543 73.996101 4283519316
-1046.2634 41.13406 73.995743 4283584596
-1043.7933 41.220043 74.275894 4283519058
-1041.3674 41.287636 74.049774 4283453521
-1038.8079 41.300392 73.934937 4283519059
-1036.2249 41.273514 74.196526 4283650389
-1033.7283 41.2244 74.522072 4283584593
-1031.2166 41.315922 74.636383 4283519057
-1028.8907 41.382103 74.671097 4283715668
-1026.2775 41.534485 74.489021 4283781973
-1023.6931 41.3484 74.495247 4283650386
-1021.2516 41.364471 74.51474 4283781458
-1018.9009 41.566319 74.519402 4283715923
-1016.1511 41.522999 74.679092 4283716436
-1013.9704 41.414562 74.655388 4283650900
-1011.2394 41.388657 74.683319 4283650900
-1009.6266 40.839993 74.506828 4283913302
-1006.5226 42.426926 74.394409 4283650650
-1055.7382 43.07465 73.425865 4283846995
-1053.7656 43.761948 73.775253 4283650387
-1051.2352 43.742416 73.966835 4283650643
-1048.7637 43.6731 74.089699 4283453779
-1046.3037 43.761787 74.247917 4283388240
-1043.7598 43.810589 74.376999 4283453523
-1041.3317 43.750298 74.249802 4283388240
-1038.7764 43.73447 74.043915 4283584595
-1036.1814 43.705887 74.38443 4283453524
-1033.7466 43.765709 74.511894 4283453523
-1031.5214 43.353325 74.485512 4283387988
-1028.3672 43.411797 74.594818 4283715925
-1026.1891 43.346161 74.205711 4283716175
-1023.954 43.542248 74.239113 4283519572
-1021.0638 43.58506 74.420097 4283650388
-1018.7908 43.734879 74.331627 4283585109
-1016.3818 43.455742 74.249168 4283585108
-1013.6823 43.021591 74.610611 4283913046
-1011.2482 43.082397 74.531441 4283847507
-1008.7813 43.443008 74.725853 4283847509
-1006.44 43.323807 74.506432 4283847250
-1053.2739 45.88076 73.408691 4283585108
-1051.2538 46.217171 73.62336 4283650643
-1048.6981 46.277424 73.904976 4283519313
-1046.272 46.230244 74.07267 4283650388
-1043.7539 46.244392 74.015198 4283584596
-1041.202 46.246265 74.097572 4283519314
-1038.8027 46.181484 74.017502 4283519318
-1036.2941 46.358543 74.209709 4283519319
-1033.7115 46.491375 74.433899 4283453780
-1031.5034 46.464104 74.537048 4283519058
-1028.8173 46.814213 74.477829 4283715922
-1026.2205 46.809067 74.697563 4283650388
-1023.9533 46.597969 74.842316 4283585105
-1021.0399 46.709332 74.708481 4283846995
-1018.7132 46.383385 74.683807 4283715924
-1016.3605 46.515354 74.717506 4283650391
-1013.744 46.885986 74.60154 4283584854
-1011.4021 47.059566 74.616158 4283585108
-1008.7524 46.94059 74.830429 4283520084
-1006.2331 47.188251 74.776726 4283716437
-1003.8397 46.845634 74.28965 4283716438
-1050.8557 48.394764 73.875313 4283650899
-1048.7432 48.760605 74.081985 4283650388
-1046.2042 48.717922 74.019516 4283715668
-1043.785 48.668839 74.135406 4283650384
-1041.2104 48.757565 74.181229 4283519314
-1038.7589 48.699421 73.848404 4283650387
-1036.3113 48.757896 73.872284 4283453779
-1033.7328 48.735226 73.637779 4283519316
-1031.1996 48.738739 73.637436 4283519316
-1028.7502 48.711571 73.837372 4283650643
-1026.2291 48.839161 74.04393 4283585109
-1023.761 48.892086 74.273758 4283519059
-1021.3185 48.652092 74.074165 4283781461
-1018.7271 48.765099 74.209137 4283584851
-1016.1648 48.827179 74.143669 4283716181
-1013.7299 48.769539 73.978333 4283716693
-1011.201 48.723404 74.187462 4283716433
-1008.7079 48.726635 74.367897 4283716693
-1006.3105 48.689766 74.542274 4283585621
-1003.8241 48.744427 74.255196 4283847255
-1001.4132 49.35957 74.494438 4283847252
-1048.5115 51.034332 74.156433 4283519828
-1045.9238 51.313095 74.319939 4283584852
-1043.7242 51.27647 74.367538 4283584851
-1041.291 51.320629 74.440224 4283650131
-1038.6996 51.260696 74.638474 4283715922
-1036.3142 51.159031 74.160736 4283584850
-1033.7892 51.12846 73.917946 4283650642
-1031.2295 51.171803 73.702118 4283650387
-1028.7902 51.099438 73.892578 4283453781
-1026.3167 50.958611 73.923225 4283519314
-1023.6261 50.923325 73.906906 4283650386
-1021.2375 50.911812 73.941788 4283650643
-1018.8427 50.961872 74.004532 4283715925
-1016.1729 51.249969 74.428154 4283716178
-1013.7764 51.219429 73.810783 4283584853
-1011.3344 51.164108 73.751083 4283585621
-1008.7145 51.271935 73.947418 4283781717
-1006.2339 51.286121 74.139656 4283847509
-1003.8182 51.15868 74.240265 4283716437
-1001.2305 51.187023 74.476204 4283781972
-999.07141 52.174141 74.701675 4283781971
-1047.7539 52.607624 73.197021 4284110679
-1045.9543 53.525433 73.919922 4283585363
-1043.6779 53.772625 74.195709 4283781459
-1041.2069 53.698269 74.127388 4283650645
-1038.7017 53.765682 74.448792 4283585111
-1036.2531 53.869595 74.631622 4283716180
-1033.6705 53.929417 74.42572 4283715924
-1031.2069 53.781334 74.590042 4283715924
-1028.7402 53.697479 74.784477 4283584850
-1026.6118 54.15403 74.734077 4283584850
-1023.7328 54.460491 74.888626 4283453780
-1021.7598 54.339317 74.777161 4283650133
-1016.2148 53.656719 74.752876 4283519314
-1013.944 53.713642 74.674347 4283716180
-1010.3981 52.597103 73.435913 4283585364
-1009.0988 52.628967 73.391357 4283716184
-1006.9873 52.681728 73.31842 4283913301
-1003.545 53.51683 74.489029 4283716693
-1001.4719 53.876888 74.681053 4283782229
-997.66943 53.950146 74.966255 4283847768
-997.21094 54.098175 74.913925 4283715927
-1045.2278 55.436729 72.985809 4283191121
-1043.6083 56.039463 73.468582 4283584849
-1041.2357 56.269829 73.561783 4283716179
-1038.7728 56.26038 73.948288 4283716181
-1036.1799 56.211124 74.252129 4283519315
-1033.8099 56.135872 74.197678 4283585107
-1031.2719 56.175739 74.123695 4283584854
-1028.734 56.308544 74.545219 4283715923
-1026.3649 56.222046 74.632004 4283781459
-1023.759 56.23978 74.772934 4283650644
-1021.1822 56.31926 74.716858 4283519574
-1019.4292 56.173119 74.6633 4283584598
-1015.7873 55.860714 74.644562 4283584595
-1013.5996 56.269901 74.556099 4283912532
-1011.3171 56.608624 74.779472 4283847251
-1009.5039 56.844872 74.952499 4283520085
-1007.035 57.254597 74.859894 4283454809
-1003.4144 55.234402 74.778099 4283847510
-1001.4691 55.283493 74.710693 4283913049
-998.79236 55.737537 74.973282 4283978581
-996.68292 55.790405 74.656464 4283912790
-994.5556 56.381191 74.849922 4283650897
-1043.0364 57.823544 73.027733 4283781717
-1041.1288 58.642578 73.541122 4283716181
-1038.7371 58.742966 74.021149 4283650646
-1036.212 58.734009 74.352493 4283716181
-1033.6962 58.761421 73.774261 4283585106
-1031.2711 58.709625 73.771408 4283650130
-1028.7832 58.804333 73.962479 4283715667
-1026.2155 58.668964 73.811821 4283650644
-1023.7712 58.625393 73.974937 4283585108
-1021.2457 58.757397 74.318016 4283519570
-1018.6814 58.908257 74.181419 4283781717
-1016.2563 58.69849 74.222588 4283716180
-1013.7693 58.790432 74.244682 4283650643
-1011.1619 58.859722 74.456558 4283650901
-1008.8503 58.851707 74.33889 4283847254
-1006.3477 58.998489 74.582214 4283847511
-1003.706 59.141335 74.603943 4283650903
-1001.1833 58.954319 74.507423 4283781972
-998.92181 59.018459 74.610031 4283847254
-996.20502 58.800228 74.526581 4283781973
-993.99054 59.070831 74.749161 4283847766
-992.03845 59.355797 74.415276 4283847768
-1040.366 60.66613 73.768036 4283519826
-1038.7494 61.174976 74.126945 4283650902
-1036.288 61.285805 74.306412 4283716438
-1033.7175 61.289913 73.892838 4283650645
-1031.2648 61.267525 73.845146 4283781460
-1028.7893 61.267643 74.034302 4283781717
-1026.2152 61.210854 73.628487 4283715923
-1023.7118 61.295219 73.523315 4283453525
-1021.3023 61.233719 73.765755 4283650642
-1018.7175 61.260231 74.071297 4283781460
-1016.2706 61.162712 74.144707 4283650389
-1013.8396 61.25948 73.804901 4283585107
-1011.2195 61.26181 74.15992 4283716182
-1008.778 61.278591 73.67009 4283650648
-1006.2746 61.13409 73.969681 4283781974
-1003.7493 61.180729 74.171494 4283650901
-1001.2172 61.333416 74.499535 4283716181
-998.82361 61.275875 74.433907 4283716439
-996.31354 61.305706 74.395607 4283781974
-993.70502 61.236805 74.247482 4283782231
-991.50946 61.334549 74.122002 4283847765
-989.7735 62.103397 73.105873 4284175448
-1038.0968 63.23774 73.601189 4283847256
-1036.3052 63.699272 73.905891 4283650647
-1033.766 63.699718 73.884033 4283781716
-1031.2061 63.766201 73.983711 4283716179
-1028.7637 63.725018 74.237434 4283781972
-1026.3066 63.760704 74.123001 4283716182
-1023.6789 63.698162 73.777786 4283453778
-1021.336 63.599388 73.808792 4283650388
-1018.7832 63.716751 73.983368 4283650646
-1016.1856 63.781166 73.905647 4283716436
-1013.7446 63.856323 73.948006 4283585109
-1011.3204 63.785179 74.413666 4283716435
-1008.683 63.648067 73.889328 4283781718
-1006.2635 63.691376 73.850685 4283716435
-1003.7963 63.718639 74.592628 4283847509
-1001.1698 63.790161 74.476944 4283781971
-998.84607 63.738495 74.481537 4283716696
-995.96991 63.523838 74.732506 4283781975
-993.62994 63.766338 74.517143 4283716950
-991.24091 63.812519 74.232048 4283782230
-989.06262 63.651863 74.286407 4283781972
-1035.7909 65.756256 73.710266 4284044116
-1033.7975 66.187653 73.859024 4283651158
-1031.214 66.307053 74.080963 4283848020
-1028.7391 66.253067 74.153557 4283716694
-1026.2812 66.116684 73.765373 4283716438
-1023.7231 66.15831 74.039413 4283650645
-1021.6453 66.104507 74.13308 4283584852
-1018.7802 66.06263 73.988869 4283584853
-1016.2524 66.346786 73.845451 4283650646
-1013.846 66.247261 73.939194 4283650389
-1011.2847 65.861496 74.223381 4283650901
-1008.6523 65.971916 74.429489 4283585365
-1006.2105 66.087082 74.426201 4283585365
-1003.7767 66.122124 74.78833 4283716437
-1001.0684 66.171432 74.242737 4283716692
-998.67303 66.271408 74.313515 4283650902
-996.25287 66.232819 74.51947 4283847509
-993.7948 66.309814 74.612236 4283978579
-991.33173 66.096161 74.473366 4283716693
-988.79895 65.953957 74.456093 4283847509
-986.5509 66.217865 74.190216 4283585621
-1033.3427 68.298958 73.671043 4283650646
-1031.287 68.819855 73.805763 4283847766
-1028.7168 68.786835 74.283836 4283847769
-1026.3011 68.675331 74.231026 4283847765
-1023.7675 68.761307 74.3507 4283716181
-1021.631 69.085785 74.683174 4283846741
-1018.1432 69.263168 74.672188 4283847511
-1016.2808 68.789253 74.435768 4283716178
-1014.3989 68.563454 74.038727 4283454036
-1010.2833 69.99173 74.707031 4283716953
-1007.8716 68.877335 74.154541 4283650903
-1006.5662 69.016136 74.69558 4283913300
-1003.7458 68.657898 74.893539 4283913048
-1000.9591 68.403778 74.208633 4283913044
-998.34045 68.517212 74.814186 4283781975
-996.258 68.607521 74.754257 4283716437
-993.83081 68.654999 74.652634 4283782486
-991.87585 69.079605 74.664642 4283913304
-989.17108 69.56366 74.659149 4283781977
-985.55438 68.543228 74.649887 4283651415
-984.09845 69.363274 74.490906 4283847767
-1030.8607 70.889984 73.153175 4283782233
-1028.7264 71.239899 73.853409 4283782231
-1026.2103 71.282272 73.637009 4283716440
-1023.7939 71.24826 73.975243 4283650646
-1021.2152 71.244453 74.184265 4283716437
-1018.7318 71.291664 74.270927 4283585112
-1016.2872 71.174164 74.378197 4283716436
-1013.8112 71.299225 74.428307 4283716438
-1011.2817 71.464844 74.479431 4283585108
-1008.4485 71.373962 74.280403 4283650902
-1006.3238 71.270439 74.346405 4283781976
-1003.684 71.428802 74.900581 4283781972
-1001.1833 71.750626 74.830208 4283847768
-998.89044 71.371986 74.726189 4283847253
-996.28436 72.08004 74.741051 4283847513
-993.46149 71.450821 74.510048 4283782231
-991.22058 71.304291 74.33564 4283716439
-988.87189 71.009964 74.524307 4283782231
-985.73828 71.66568 74.8358 4283651415
-984.02704 71.371407 74.720169 4283913559
-981.74976 72.174271 74.639091 4283716693
-1028.3977 73.435654 73.877365 4283782490
-1026.1251 73.713066 74.378838 4283782229
-1023.6996 73.775536 74.195023 4283781976
-1021.3384 73.668526 73.454659 4283781976
-1018.7264 73.761353 73.613121 4283716437
-1016.2552 73.691628 74.14212 4283716438
-1013.931 73.74395 74.189453 4283781717
-1011.2418 73.795715 73.623833 4283716439
-1008.7711 73.729202 74.275574 4283715925
-1006.3328 73.814735 74.34845 4283716440
-1003.749 73.840569 74.506264 4283716693
-1000.8754 73.848808 74.290886 4283847509
-998.74402 73.665382 74.412102 4283585109
-996.26556 73.719246 74.210014 4283716438
-993.68347 73.79882 74.402298 4283781977
-991.25818 73.766197 74.237465 4283913304
-988.63409 74.032272 74.746284 4283913046
-986.11249 73.701576 74.661957 4283782232
-983.75824 73.781662 74.341309 4283781976
-981.33044 73.773346 74.243752 4283651161
-979.72223 73.83493 73.883804 4283913303
-1027.7146 75.159096 73.639313 4283913048
-1026.0188 76.009956 73.97171 4283848022
-1023.71 76.282829 74.228394 4283847766
-1021.2651 76.279709 74.491783 4283782231
-1018.8135 76.393005 74.633255 4283847509
-1016.129 76.146751 74.717697 4283650644
-1013.927 76.331245 74.700874 4283389267
-1011.0259 76.282822 74.72213 4283716179
-1008.7186 76.660156 74.870995 4283912788
-1006.3299 76.428581 74.754753 4283847255
-1003.9212 76.375183 74.757408 4283716438
-1001.1801 76.232674 74.781837 4283781719
-999.0509 75.507393 74.061172 4283978579
-996.33167 76.294983 74.173813 4283585624
-993.66302 76.20414 74.482201 4283847769
-991.20355 76.245346 74.263107 4283781975
-988.79822 76.21769 74.48214 4283781973
-987.19214 76.045235 74.814064 4283781715
-982.99133 76.267776 74.237137 4284044376
-981.47601 76.045296 74.389679 4283913557
-978.87494 76.149834 74.895874 4284044374
-977.35559 76.698219 74.905251 4283913561
-1025.4043 77.871262 73.455444 4283978838
-1023.6352 78.679527 73.511505 4283848022
-1021.2006 78.925018 73.795807 4283847509
-1018.748 78.711174 74.160263 4283781972
-1016.1545 78.799667 74.367935 4283650901
-1013.6705 78.905525 74.54213 4283913559
-1011.3582 78.861031 74.459244 4283716950
-1008.7958 78.715279 74.827812 4283782231
-1006.0017 78.612694 74.514496 4283716694
-1003.8647 78.782745 74.335167 4283781974
-1001.3142 79.070854 74.609917 4283847767
-998.76233 79.188362 74.568268 4283847766
-996.33813 78.70594 74.419991 4283847511
-993.34839 78.489906 74.682724 4283847766
-991.03656 78.375381 74.502693 4283716697
-989.08551 78.856613 74.518776 4283782230
-986.36719 79.176003 74.836891 4283716696
-983.80304 78.481567 74.712029 4283848026
-981.98926 77.80365 74.534439 4283716697
-978.59949 78.688179 74.844803 4283848280
-976.28564 78.960022 74.619316 4284110166
-1022.9202 80.478973 73.22728 4284306263
-1021.1608 81.240028 73.115982 4283848025
-1018.7311 81.234093 73.918694 4283651414
-1016.282 81.28344 74.115387 4283847766
-1013.7081 81.324501 74.004906 4283716439
-1011.2214 81.274406 74.279953 4283847768
-1008.8547 81.233109 74.656075 4283781974
-1006.007 81.393944 74.726265 4283716438
-1003.751 81.317871 74.553276 4283847509
-1001.3807 81.316078 74.409393 4283781973
-998.65454 81.221794 74.237198 4283651162
-996.22827 81.239326 74.15876 4283847767
-993.66077 81.378662 74.504951 4284044375
-990.76727 80.887924 74.8582 4283847768
-989.14386 81.243805 74.627831 4283847512
-985.89948 80.909988 74.78511 4283651416
-984.65314 81.392433 74.523651 4283913302
-981.24548 82.234428 74.953125 4283978837
-979.12469 81.11879 74.903961 4283913562
-975.97278 81.09137 74.828987 4284110680
-973.83148 81.657326 74.758904 4284110169
-972.31085 82.013687 74.779785 4283913811
-1020.5992 83.163849 73.390137 4283913814
-1018.7441 83.71376 74.197517 4283716952
-1016.3385 83.769241 74.25737 4283782487
-1013.7404 83.74572 73.691757 4283782487
-1011.1683 83.753906 73.926689 4283913047
-1008.7856 83.695793 74.086182 4283781976
-1006.2613 83.725418 74.414299 4283782232
-1003.7171 83.821701 74.306107 4283782232
-1001.2769 83.709808 74.301743 4283782485
-998.74799 83.783676 74.361626 4283716440
-996.15796 83.820641 74.250237 4283913559
-993.79974 83.763115 74.116631 4283782231
-991.11627 83.937294 74.432732 4283716696
-989.02954 83.820503 74.261131 4283913303
-985.93744 84.334953 74.654503 4283782486
-983.81506 83.937691 74.519234 4283848024
-981.2561 83.85611 74.392807 4283913816
-978.72284 83.966446 74.414345 4283848283
-976.31512 83.907982 74.518257 4283979353
-973.87433 83.786217 74.487839 4284307803
-972.15674 83.568787 74.635719 4284569950
-1018.1451 85.891151 73.846504 4283716947
-1016.2432 86.199417 73.96125 4283782231
-1013.807 86.256248 74.048645 4283913814
-1011.2467 86.279182 74.043625 4283979095
-1008.7659 86.200455 73.804008 4283651160
-1006.3203 86.167938 74.072075 4283847766
-1003.7269 86.221642 73.812279 4283913559
-1001.1932 86.307663 73.952209 4283651158
-998.78076 86.240402 74.05986 4283782230
-996.28107 86.263039 74.170715 4283782231
-993.62128 86.172386 74.090057 4283782231
-991.19208 86.218407 74.203545 4283979099
-988.79828 86.250275 73.970001 4283913558
-986.20093 86.323502 74.132095 4283914071
-983.72931 86.351112 74.279091 4283913815
-981.35736 86.245094 74.256599 4283848536
-978.71985 86.248436 74.171875 4284045401
-976.35156 86.268127 74.350044 4284176731
-974.23114 85.710754 73.57679 4284044889
-1015.9279 88.415451 73.900093 4283979095
-1013.8356 88.795975 74.188156 4283782741
-1011.2413 88.747665 74.155388 4283979095
-1008.6564 88.677795 73.680099 4283979351
-1006.2421 88.726326 73.76564 4283848279
-1003.7884 88.797791 74.24102 4283848020
-1001.2267 88.774765 74.409271 4283847768
-998.75531 88.678551 73.926292 4283913557
-996.30042 88.68428 74.103104 4283848025
-993.73553 88.544075 74.338051 4283979094
-991.36652 88.386757 74.382408 4283914333
-988.8656 88.521812 74.515633 4283978841
-986.29242 88.817055 73.958649 4283979608
-983.66858 88.788292 74.176285 4283848281
-981.16992 88.359215 74.065872 4284044890
-978.87738 88.681831 73.626358 4284176989
-976.92017 88.223099 73.89682 4283913812
-1013.4629 91.016144 73.352402 4284110421
-1011.2731 91.132591 73.591751 4284175961
-1008.7474 91.199463 73.629669 4283848280
-1006.261 91.323334 74.046524 4283979353
-1003.8007 91.179207 74.371758 4283847767
-1001.2084 91.209503 74.200806 4283782232
-998.70105 91.214928 73.897995 4283782232
-996.26538 91.19622 74.163872 4283913559
-993.90845 91.377831 74.352219 4283913814
-991.1825 92.054504 74.446884 4284176214
-988.40204 91.51133 74.374138 4283782486
-986.30115 91.229103 74.196327 4283848280
-983.60883 91.552498 74.732239 4284110937
-981.25415 91.734299 74.29525 4283847760
-979.22723 90.400124 73.878052 4283321163
-1012.6553 92.723793 73.177345 4284110679
-1011.0847 93.53093 73.899155 4283979866
-1008.7983 93.754387 74.109955 4284176216
-1006.1662 93.741226 74.011482 4283913814
-1003.754 93.681831 74.084099 4283913561
-1001.2828 93.62133 74.352203 4283979351
-998.73621 93.792587 73.682732 4283848281
-996.27014 93.812981 73.71669 4283979097
-993.85553 93.788742 74.14006 4284110678
-991.24438 93.832291 73.751617 4283913818
-988.66699 93.705139 73.74485 4283979608
-986.25439 93.750824 73.620651 4284110682
-984.00903 93.537086 73.815529 4284045916
-982.31482 93.213539 74.786148 4283519314
-1010.2234 95.606331 73.377586 4284307034
-1008.6036 96.038864 74.143097 4283914072
-1006.2548 96.212997 74.046783 4284045145
-1003.6984 96.310158 73.967674 4283913819
-1001.2741 96.297585 74.036713 4283979353
-998.81769 96.262596 73.707947 4283979355
-996.18463 96.216499 73.888336 4283913563
-993.71478 96.267906 74.458443 4284044888
-991.33282 96.245895 73.533119 4284044889
-988.7193 96.315903 73.821419 4284176728
-986.47723 95.943779 73.638298 4283979866
-984.88348 95.241325 72.655602 4283782232
-1008.0166 97.890404 73.447861 4284241755
-1006.1494 98.659477 73.233559 4283979867
-1003.7693 98.754799 73.633034 4283979611
-1001.1965 98.782471 73.647224 4283979611
-998.7594 98.646156 73.774399 4284110425
-996.28827 98.655891 74.229263 4284110426
-993.70844 98.822891 74.248276 4284045143
-991.30084 98.732239 74.266342 4284242268
-989.19171 98.641045 73.739128 4284044630
-1005.5625 100.82934 73.359352 4283848541
-1003.7659 101.17052 73.594566 4283979609
-1001.1945 101.20695 73.745178 4284176475
-998.74847 101.22056 74.066689 4284045143
-996.54327 101.42412 74.346176 4284045146
-993.65106 101.28069 74.220337 4284242012
-991.52661 100.85938 73.622887 4284110937
-989.97369 100.17761 73.449493 4283321423
-1003.4115 103.16516 73.22834 4284045661
-1001.2473 103.76416 73.545189 4283979868
-998.69897 103.78468 73.784416 4284176474
-996.34174 103.66757 73.981224 4284110938
-994.16046 103.06842 74.000771 4284110168
-1000.7758 105.8971 73.655479 4284111193
-998.87274 105.9952 73.303154 4284176987
-996.53467 105.47366 73.771957 4283912531
-999.4389 107.56888 72.712402 4284439132
-1035.6095 12.279134 75.423645 4283847763
-1033.8054 12.253046 75.437157 4283781968
-1038.2172 14.304432 75.734398 4283847249
-1036.3384 13.953076 75.732262 4283716180
-1033.5721 13.744618 75.710686 4283781712
-1031.9641 13.933173 75.803772 4283847248
-1040.5209 16.67041 75.11515 4283781972
-1038.5251 16.290489 75.490471 4283847254
-1036.1835 16.214136 75.775131 4283716181
-1033.7856 16.210562 75.672981 4283847509
-1031.2164 16.321283 75.728004 4283781974
-1029.3059 16.800573 75.463196 4283847508
-1040.8654 18.699697 75.04747 4283650383
-1038.2096 18.264624 75.284752 4283585110
-1036.3768 18.632645 75.520897 4283650901
-1033.7332 18.428175 75.383072 4283519829
-1031.2604 18.704788 75.334923 4283650644
-1028.8069 18.913414 75.25988 4283716438
-1027.1243 19.223608 75.212639 4284043863
-1043.0791 22.333183 75.383911 4284109143
-1040.9424 20.287804 75.017273 4283389262
-1039.1821 22.430386 75.249146 4283651415
-1036.8468 20.935385 75.291931 4283650641
-1033.4727 22.239323 75.291466 4283519318
-1031.005 21.050816 75.238968 4283650132
-1028.5286 21.197954 75.429527 4283650900
-1026.397 21.640062 75.505981 4283846997
-1024.4979 22.223991 75.327919 4283847252
-1045.4248 23.917656 75.094849 4283847243
-1043.4021 23.963701 75.206322 4283650644
-1040.236 24.235291 75.507317 4283519566
-1038.767 23.916296 75.523628 4283715923
-1036.5486 23.949097 75.490219 4283650385
-1033.5823 23.742296 75.479057 4283781459
-1031.5963 23.656706 75.353394 4283454031
-1028.6316 23.817671 75.571205 4283650644
-1026.1768 23.727058 75.649902 4283781715
-1023.8802 23.898872 75.420723 4283650388
-1043.6714 25.260559 75.007568 4283650648
-1040.1984 25.396263 75.254257 4283847246
-1038.6139 25.741865 75.310982 4283715925
-1036.3627 25.633074 75.350731 4283519571
-1033.5037 25.948469 75.234222 4283650387
-1031.3918 26.341314 75.141335 4283585108
-1028.8983 25.760187 75.42923 4283453779
-1026.2856 25.556664 75.554924 4283846998
-1023.703 25.764748 75.402794 4283716180
-1021.7914 26.18862 75.258049 4283978581
-1039.1636 28.122255 75.165161 4283584853
-1033.0385 28.13455 75.096336 4283519569
-1031.1255 28.475077 75.071655 4283519315
-1029.0406 28.993164 75.055962 4283519828
-1023.7462 29.212513 75.228104 4283716435
-1021.2911 28.980938 75.175117 4283650898
-1018.9632 29.299355 75.430824 4283716183
-1017.3688 29.860893 75.595886 4283848027
-1057.7386 32.131172 75.158508 4283650129
-1056.2246 32.274185 75.107361 4282797908
-1054.2246 32.276314 75.065308 4283257170
-1045.4354 32.342766 75.416809 4283781459
-1044.4575 32.364914 75.425987 4283519061
-1041.2163 32.449421 75.2481 4283518806
-1039.9048 32.474579 75.354431 4283191123
-1030.7478 30.106064 75.091125 4283782476
-1029.4492 30.138672 75.046204 4283782737
-1024.0708 30.255733 75.193359 4282798419
-1021.2328 30.845922 75.119118 4283584851
-1018.3447 30.797106 75.218864 4283650645
-1016.9279 31.095198 75.307365 4283716692
-1058.1873 32.716648 75.162048 4283387725
-1055.6322 33.748592 75.12841 4283650386
-1054.186 33.63789 75.054955 4283650131
-1051.0411 33.695557 75.084206 4283453520
-1048.6915 33.868244 75.172958 4283519313
-1046.0474 33.974281 75.369934 4283519058
-1043.6887 33.764332 75.519737 4283584595
-1041.2208 33.731606 75.558388 4283781204
-1038.7463 33.75621 75.546082 4283650134
-1036.6514 33.979477 75.402184 4283650386
-1033.782 34.362759 75.095863 4283584597
-1031.4891 34.4291 75.29808 4283519060
-1025.2897 33.792145 75.298653 4283715922
-1023.6054 33.725739 75.243172 4283453779
-1021.2943 33.608212 75.127625 4283650643
-1018.7628 33.366337 75.110039 4283716182
-1015.9522 33.702091 75.324905 4283847508
-1014.5872 33.827583 75.451187 4283716436
-1055.6343 35.728539 75.035324 4283781714
-1054.6729 35.23777 75.016663 4283716432
-1046.5312 35.659149 75.318817 4283387727
-1043.3264 35.78669 75.281898 4283453777
-1041.144 35.509926 75.223457 4283519060
-1038.7491 35.885036 75.287628 4283650130
-1036.5906 35.935963 75.369286 4283715923
-1033.9406 36.049572 75.336456 4283846998
-1031.9995 36.281223 75.614677 4283585619
-1025.588 36.660393 75.12812 4283585361
-1021.4854 37.457542 75.138611 4283257683
-1015.2634 36.05167 75.277962 4283650899
-1014.9413 36.196663 75.288437 4283781972
-1038.1218 38.620369 75.069855 4283650129
-1033.8622 37.50193 75.044434 4283323480
-1028.0482 39.737789 75.156219 4283453274
-1026.2501 38.857754 75.22596 4283715925
-1024.0482 38.847717 75.06459 4283519569
-1021.2178 39.201626 75.380127 4283454035
-1018.4825 39.115456 75.506767 4283585108
-1016.6714 39.059734 75.489777 4283716692
-1013.5472 38.926758 75.265022 4283454294
-1011.1729 39.223221 75.231804 4283913043
-1008.7023 39.816696 75.095245 4283978068
-1038.1602 40.003395 75.010437 4283913035
-1028.0007 40.357552 75.118484 4283781453
-1026.3865 40.743557 75.064728 4283650645
-1024.3156 40.199749 75.180298 4283716430
-1020.8918 40.247322 75.328964 4283650898
-1018.5261 40.632832 75.356506 4283716179
-1016.5003 40.818886 75.325272 4283913044
-1013.3434 41.01318 75.178055 4283650642
-1011.3337 41.081039 75.100952 4283650900
-1008.8026 41.600281 75.366455 4283847508
-1007.1588 42.221802 75.346695 4283781971
-1041.5056 44.055435 75.137222 4283715666
-1030.916 44.245525 75.278503 4283650899
-1029.127 44.285976 75.28035 4283649874
-1026.3527 44.614193 75.533012 4283519061
-1023.3083 44.386944 75.267464 4283650127
-1021.4415 44.307137 75.573936 4283453522
-1015.9227 44.538364 75.382599 4283781204
-1013.6778 44.427753 75.377548 4283716178
-1011.231 44.468609 75.598892 4283847252
-1008.8918 44.081165 75.401192 4283847509
-1006.4185 44.463692 75.360306 4283716433
-1035.4438 45.23811 75.271324 4283453011
-1033.713 45.281559 75.211426 4283585107
-1030.8804 45.520287 75.125008 4283584596
-1028.626 45.629951 75.058868 4283519059
-1026.303 45.834156 75.550163 4283650390
-1023.692 45.958031 75.205376 4283453521
-1021.3965 45.769817 75.583748 4283715921
-1018.6413 45.850853 75.264809 4283585106
-1016.1872 45.839993 75.554756 4283649873
-1013.7391 45.697868 75.509659 4283650644
-1011.1653 45.954422 75.611526 4283715926
-1008.7522 45.926186 75.553406 4283716438
-1006.2627 45.88105 75.45462 4283847509
-1004.3361 45.792076 75.417603 4283847512
-1001.8521 48.546215 75.160446 4283651162
-1048.0742 50.775131 75.152794 4283716435
-1047.0354 51.055988 75.165932 4283716178
-1038.7316 51.00354 75.26416 4283585108
-1033.3395 52.312805 75.237083 4283716441
-1028.5038 52.355877 75.382042 4283715671
-1026.2201 52.240547 75.439842 4283650132
-1023.7867 52.300331 75.377754 4283453780
-1021.4484 52.338871 75.530388 4283322706
-1018.4918 52.264931 75.856728 4283650643
-1000.084 52.371208 75.078674 4283913305
-998.60364 51.976173 75.363251 4283651151
-1036.3444 53.167236 75.235123 4283978583
-1034.0834 53.163521 75.27092 4283650134
-1031.1399 53.145569 75.182594 4283846994
-1025.8594 53.248081 75.474205 4283715668
-1023.7019 53.412338 75.296547 4283519058
-1021.1391 53.590965 75.505836 4283584852
-1018.7677 53.703121 75.632271 4283650643
-1016.1913 53.778187 75.240952 4283585106
-1013.7123 53.835522 75.217003 4283715925
-1011.306 53.777958 75.954346 4283650902
-1008.6703 53.941143 75.837158 4283847509
-1006.2504 53.950054 75.775215 4283716183
-1004.1041 53.977234 75.460243 4283781974
-1000.2864 53.507774 75.171234 4283781975
-998.83392 53.824833 75.077065 4283781975
-997.18378 53.129234 75.00354 4284305755
-1025.1625 55.296772 75.353233 4283781715
-1022.561 55.093327 75.27478 4283125846
-1021.0632 55.122204 75.32457 4283453525
-1018.4526 56.264935 75.382538 4283584852
-1016.4619 56.420677 75.383217 4283650387
-1013.8941 56.193314 75.140915 4283847253
-1011.2343 55.96682 75.483345 4283716437
-1008.5669 56.048256 75.530281 4283650902
-1006.1683 56.262283 75.377907 4283716439
-1003.7759 56.360645 75.335579 4283781973
-1001.3327 56.404423 75.628235 4283651158
-998.65405 56.331326 75.635796 4283847253
-995.94208 56.651405 75.457207 4283913299
-994.35791 57.281845 75.346062 4283913045
-1018.7337 57.859669 75.17421 4283650392
-1015.6931 57.523438 75.149208 4283912017
-1014.1801 57.561546 75.096901 4283716438
-1011.416 57.615692 75.171257 4283585363
-1008.0976 57.860542 75.314621 4283519831
-1006.0336 57.853783 75.153389 4283585625
-1003.6877 58.247612 75.13324 4283847509
-1001.4072 57.796276 75.174164 4283913297
-998.37714 57.834835 75.223228 4283716435
-993.58136 58.598827 75.308037 4283716437
-992.45154 58.792526 75.285461 4283717207
-1020.3577 64.382881 75.166466 4283716182
-1008.1797 64.496147 75.096191 4283519828
-1003.7979 64.590843 75.111443 4283781204
-1002.0159 64.634193 75.049889 4283978069
-997.78198 64.342224 75.273651 4283716950
-996.53467 63.98447 75.26355 4283716438
-994.24597 63.703583 75.203133 4283847766
-990.00281 64.364059 75.090759 4283978573
-989.00201 64.066833 75.099396 4283913044
-1029.2587 66.947067 75.106056 4283913302
-1020.5565 66.547684 75.182213 4283781461
-1019.2898 67.265671 75.188751 4283585107
-1012.7881 67.13768 75.194977 4283454298
-1011.3602 67.128708 75.237778 4283716441
-1008.8503 66.795135 75.298027 4283716692
-1006.3422 67.209305 75.255653 4283716694
-1003.9431 66.465942 75.090553 4283650903
-1002.0891 66.439522 75.092087 4283454550
-997.80774 65.05159 75.026306 4283520086
-990.74475 67.136299 75.496277 4283519825
-988.51654 66.905128 75.298996 4283716693
-986.99158 67.213936 75.263092 4283716693
-1020.744 68.498672 75.189362 4283781715
-1018.9858 68.618019 75.292831 4283847508
-1013.2056 68.926682 75.211754 4283650644
-1011.3075 68.724136 75.205025 4283716438
-1009.1294 68.792625 75.196037 4283782230
-1006.064 68.679863 75.189362 4283913045
-1003.7173 68.694298 75.116524 4283913048
-1001.7818 69.130806 75.340439 4283650901
-999.29559 69.084068 75.338585 4283650900
-996.37286 69.045456 75.374573 4283520341
-993.92596 69.144249 75.405815 4284044887
-990.98163 68.601685 75.506516 4283847511
-988.6192 68.659828 75.330406 4283782229
-986.57538 68.908012 75.435844 4283847763
-984.31189 69.083084 75.588379 4283520343
-1018.0533 70.08696 75.30188 4283847512
-1012.8905 71.248337 75.183884 4283520341
-1010.6198 71.083344 75.039429 4283388499
-1009.5228 70.863434 75.099541 4283716184
-1005.9092 71.022957 75.050537 4283847255
-1003.8199 70.471161 75.088242 4283716439
-1001.4247 70.530174 75.190849 4283716440
-998.53333 70.494186 75.345146 4283650899
-996.18457 70.925346 75.380783 4283716692
-994.17175 70.868324 75.366943 4283848020
-992.20496 70.872696 75.134262 4283913049
-988.34821 71.885345 75.080597 4283716690
-986.59271 71.031487 75.1922 4283847511
-983.61584 71.079018 75.486366 4283782231
-981.76416 71.806519 75.094208 4283847514
-1027.588 74.083115 75.135559 4283848795
