# .PCD v0.7 - Point Cloud Data file format
VERSION 0.7
FIELDS x y z rgba
SIZE 4 4 4 4
TYPE F F F U
COUNT 1 1 1 1
WIDTH 1133
HEIGHT 1
VIEWPOINT 0 0 0 1 0 0 0
POINTS 1133
DATA ascii
-990.31085 43.100918 66.599457 4282070057
-991.0885 47.298698 65.94278 4281805861
-991.45264 49.653248 66.898224 4281477157
-991.4953 50.050381 65.568481 4281935639
-978.28125 -29.125938 68.946014 4281347113
-979.03125 -25.127747 69.474396 4281740297
-979.05585 -24.871384 67.988159 4281411881
-979.80957 -20.69606 68.601135 4281346334
-980.20721 -17.903749 68.667152 4281608233
-980.58136 -16.134399 68.533081 4282002456
-984.42651 7.3040695 69.910522 4281740321
-984.45752 7.8100486 68.875511 4281478433
-985.98773 16.533888 68.861397 4281608730
-986.3703 19.20355 69.488243 4281413415
-986.7132 21.388044 68.174133 4281937682
-988.93054 23.852768 69.863312 4282132265
-987.14746 23.702185 69.020142 4281738789
-987.51947 25.896385 69.535583 4281937187
-988.04291 28.644777 69.320816 4281739809
-988.30066 30.585045 69.123444 4281738251
-988.78552 33.708416 69.251007 4281412903
-989.4342 37.33078 69.919495 4281279744
-990.30396 38.872414 69.838974 4281871392
-989.71649 38.565357 68.927811 4281478413
-992.50739 42.063969 69.355553 4282068249
-991.41486 41.25692 69.759323 4281936669
-989.87366 40.286217 68.261169 4281151787
-992.52081 42.709557 69.465454 4281675559
-990.27386 42.697121 67.74646 4281675301
-992.98297 46.40041 69.636864 4282265381
-991.01373 46.649868 68.361084 4281805611
-993.28937 47.713558 69.887878 4281873443
-991.37933 48.988491 69.207336 4281676060
-993.57013 51.397984 69.272728 4281740565
-992.04688 51.084431 69.462273 4281740834
-978.755 -38.792633 71.748894 4281543451
-976.95813 -39.529926 71.763969 4281477661
-977.33746 -36.086212 71.765945 4281871138
-977.81659 -33.214603 71.940216 4280952870
-977.47113 -34.318039 71.111526 4281411345
-978.21948 -30.054001 72.290222 4281674263
-980.89337 -28.468218 72.265739 4281740836
-978.24512 -29.607229 71.037437 4281477928
-981.39722 -26.865051 72.258308 4282004006
-979.42828 -25.920624 72.007446 4281477920
-981.02631 -23.712282 71.797615 4281346839
-979.6485 -24.147913 71.941658 4281018659
-980.99646 -21.571123 71.516197 4281280541
-979.74908 -21.542961 71.603676 4281411610
-980.82056 -18.611893 71.649261 4281476901
-982.9668 -15.941197 71.36068 4281740836
-981.5462 -16.433268 71.443916 4281543184
-983.00964 -13.582753 71.767944 4281871650
-981.68567 -13.915365 71.202591 4281674259
-983.26752 -11.246361 71.36792 4281674785
-982.00159 -11.400419 71.301834 4281673757
-983.25928 -8.7623024 72.044205 4281805348
-982.28857 -9.0112362 71.439766 4281803546
-983.66406 -6.2231674 71.599319 4281543714
-982.4057 -7.1708221 71.124901 4281739279
-985.17236 -3.4995289 72.093842 4281805866
-983.87146 -3.846225 71.863091 4281543453
-985.43243 -0.73305792 71.851898 4281282084
-983.96075 -1.2935755 72.085335 4281675039
-985.39075 0.98872143 71.559479 4281478168
-984.28888 1.2029763 71.913933 4281609248
-985.75 4.1560206 71.95932 4281871903
-984.60327 3.8019907 71.842911 4281543460
-985.91144 6.2517285 71.323418 4281608998
-984.6485 6.1661282 71.857933 4281149222
-986.02985 8.7096052 71.730553 4281740574
-984.72589 7.7448235 72.057007 4280822554
-987.76947 11.60601 71.444214 4281678391
-986.31409 11.302637 71.619232 4281609504
-987.755 13.993754 71.908943 4281149213
-986.62872 13.697699 71.490784 4281739555
-987.77466 16.407497 71.818062 4281674010
-986.71472 16.115288 71.029663 4281609504
-988.16528 18.708389 70.897598 4281477917
-986.89178 18.652159 70.801224 4281543450
-988.43945 21.303349 71.028961 4281477666
-987.09424 21.062536 70.881989 4281477924
-988.59308 23.801224 70.463745 4281542943
-987.37073 23.643959 71.093048 4281477153
-990.09631 26.663555 71.913597 4281938218
-988.74158 26.282713 70.842819 4281739805
-987.48987 25.337608 70.284302 4281739043
-990.2959 28.946703 71.224945 4281806376
-989.0835 28.695402 70.935577 4281740059
-990.40387 31.17342 70.637497 4282198811
-989.25098 31.259836 71.219139 4281477911
-990.62885 33.779469 71.328659 4281609506
-989.4256 33.528873 70.992355 4281478435
-990.69153 36.292629 70.493431 4281477662
-989.56372 36.136066 70.54612 4281411864
-991.29462 38.789185 70.575813 4281674789
-989.76526 37.678604 70.105652 4281673735
-992.79297 42.037605 70.887054 4282596932
-991.07819 41.268707 70.295013 4281477923
-992.70624 44.031021 70.936363 4281544751
-991.42279 43.672424 70.61834 4281871139
-992.75391 46.141483 70.11644 4281872153
-991.67743 46.198021 70.431244 4282068515
-993.25049 48.872993 70.586967 4282135856
-991.91095 48.613331 70.424553 4281937958
-993.49915 50.53331 70.795158 4281739809
-992.23151 50.482136 70.217049 4281346838
-977.92871 -37.984821 72.867462 4281608732
-977.16602 -38.59647 72.811501 4281477401
-980.01178 -35.359074 74.298683 4281741607
-978.73254 -36.137173 73.454308 4281608988
-977.38489 -37.018524 72.732758 4281085226
-980.22003 -33.676037 74.094032 4281280807
-978.82416 -33.837498 73.315842 4281149211
-980.4162 -31.138294 74.006203 4281542939
-978.98889 -31.279238 73.683891 4281017890
-980.51489 -29.108116 72.9869 4281673760
-979.2171 -28.79047 73.264023 4281281057
-980.99481 -26.18437 72.682823 4281739807
-979.42273 -26.665131 72.745155 4281345828
-981.93427 -24.419357 73.162392 4282790944
-979.69019 -23.397003 72.506226 4281280549
-981.88208 -20.526379 73.23381 4281740063
-982.73181 -18.604511 73.272835 4282200869
-981.84827 -19.054604 73.053741 4281542947
-983.63495 -13.073819 73.100548 4281610028
-983.87903 -12.266655 72.731506 4280498229
-984.11877 -8.5265675 72.925301 4281871386
-984.33539 -7.0649071 72.824127 4282001441
-985.20416 -2.8033066 72.789124 4281217059
-983.95215 -2.9887943 72.744308 4281413143
-985.17657 -1.7704595 72.762756 4280560421
-984.7998 -1.5463963 72.908997 4281806372
-985.91248 1.8172256 72.884293 4282069811
-985.8623 3.080893 72.869354 4281085485
-987.68793 9.918251 73.255432 4283187509
-987.72461 10.975573 72.795067 4282005816
-987.40723 11.245378 72.731911 4281740323
-988.13293 14.15641 72.69812 4281611059
-991.98059 36.126068 83.82666 4283321667
-1030.0419 42.888252 84.745422 4284178014
-1029.7213 42.897049 84.731018 4284767836
-1026.2428 43.581955 84.074707 4284702815
-1024.0406 43.712765 84.991882 4284505697
-1016.9064 45.182926 84.839539 4284965218
-1004.2054 47.109886 84.336914 4284572255
-1002.8994 47.702141 83.197388 4284965220
-1013.8768 -55.25272 87.016541 4283980380
-1014.0056 -54.869415 86.793335 4283848284
-996.6991 -52.601334 87.366699 4284110674
-1027.9517 42.46946 86.89917 4283653218
-1027.8308 42.961418 86.169716 4284505185
-1026.0909 43.103199 86.164787 4284636510
-1023.5461 43.58773 85.977798 4284439905
-1021.1684 44.094719 86.146881 4284571231
-1018.8402 44.298073 86.046837 4284440417
-1016.7375 44.649319 85.937912 4284505954
-1014.0414 44.819077 86.60453 4284505699
-1012.1091 44.872292 87.431305 4284309858
-1017.6674 45.222401 85.606018 4284703333
-1013.6625 45.228622 86.127495 4284571236
-1011.3658 45.301144 86.482201 4284505951
-1008.9104 45.513432 86.832718 4284570978
-1003.9719 46.661819 85.878204 4284571487
-1001.5286 46.950405 86.282394 4284374626
-998.67389 47.214432 86.697578 4284440157
-997.05176 47.349892 86.794434 4284768098
-1000.3527 47.722553 85.472557 4284570980
-998.70325 47.82058 85.785439 4284703073
-996.04681 47.889053 86.609909 4284440159
-994.77496 47.994865 86.399277 4284242524
-1013.511 -55.360809 87.776222 4283191125
-1011.0648 -55.427235 88.078026 4281808687
-1009.6436 -55.215191 88.163857 4282266661
-1012.9885 -54.742603 87.82943 4284045152
-1011.0996 -54.648964 87.780014 4284110427
-1009.5436 -54.426636 88.109596 4283716701
-1005.9277 -53.50478 88.528114 4283782740
-1003.6492 -53.043835 88.932381 4284045402
-1001.8113 -53.004494 88.607903 4283979606
-998.91888 -52.528885 88.098938 4284503643
-1000.6306 -52.30547 89.536362 4284045400
-998.29321 -52.054111 88.974915 4284241496
-996.26428 -51.842857 88.929184 4284044632
-992.74084 -47.856255 89.712677 4283912532
-992.26208 -47.844238 89.696106 4284043334
-980.5733 -49.155403 89.264771 4284110169
-1010.6859 -26.68779 89.986481 4283649362
-1018.4763 -18.660957 89.724091 4283518287
-1016.2574 -18.552763 89.666107 4283452749
-1010.7791 -18.647726 89.976463 4283321422
-1007.6978 -18.463943 89.867615 4283454036
-1006.7407 -18.439911 89.834473 4283387985
-1019.474 -8.0573997 89.807953 4283060045
-1016.0066 -8.1845264 89.773743 4283649356
-1020.9703 -5.4615517 89.92646 4283649099
-1019.1281 -5.6711416 89.882423 4283321680
-1015.9941 -7.1057405 89.5233 4283518797
-1011.8145 -7.3879089 89.778748 4283845454
-1020.7723 -3.5890324 89.906425 4283452494
-1019.0685 -3.9285641 89.897659 4283518542
-1015.116 -3.1605644 89.803955 4283256395
-1014.6374 -3.1485043 89.787399 4283583567
-1022.8079 2.1295955 89.956642 4283321417
-1013.6423 2.3000858 89.984657 4283518803
-1012.3666 2.3316536 89.940521 4283583828
-1014.1125 3.525918 89.975319 4283715155
-1012.3955 3.4492722 89.918396 4283387982
-1007.3131 4.8500748 89.993835 4283125590
-1025.2948 6.5280867 89.468102 4283452756
-1024.9221 6.2834082 89.565987 4283386958
-1025.2902 7.6027222 89.928162 4283452761
-1024.7753 8.8024111 89.863785 4283649616
-1024.722 10.331448 89.852356 4283124301
-1024.0499 14.982601 89.639877 4282995022
-1021.1433 14.720478 89.97226 4283124819
-1016.8284 14.821655 89.987732 4283584344
-1013.8002 14.743641 89.798492 4283518288
-1010.1328 14.990204 89.756165 4283716179
-1009.8139 14.998657 89.745178 4283715922
-1025.2183 17.028526 89.668549 4283846216
-1023.9074 16.120104 89.800003 4283321933
-1021.2287 16.302021 89.849289 4283256401
-1018.6875 16.770937 89.799202 4283584336
-1016.9286 16.218239 89.699051 4283649616
-1013.8439 15.869947 89.500137 4283453010
-1010.1605 15.950188 89.675964 4283585106
-1009.8416 15.959346 89.665001 4283584595
-1006.8318 17.456615 89.916473 4283518801
-1000.2411 15.700752 89.929199 4283519068
-998.91663 15.777866 89.685883 4283584083
-997.20734 15.61562 89.904312 4283714899
-1025.2954 18.676094 89.648827 4283649105
-1023.8244 18.587343 89.869934 4283453007
-1021.4523 18.267004 89.66291 4283452495
-1018.6127 18.588087 89.713829 4283453265
-1016.3744 18.944195 89.735451 4283453523
-1012.7954 19.078623 89.670471 4283781456
-1010.7267 19.016314 89.648567 4283715407
-1009.2305 19.070234 89.740723 4283846735
-1006.1644 19.231998 89.753334 4283519059
-1003.6174 19.813488 89.520065 4283519059
-1001.7789 19.805958 89.97345 4283518294
-1027.5735 21.288364 89.510315 4283518800
-1012.8152 20.033211 89.743591 4283454551
-1010.7937 20.082275 89.715111 4283715152
-1008.9831 20.124765 89.735252 4283846992
-1005.4763 20.212912 89.613976 4283649873
-1004.0949 20.24855 89.565956 4283715924
-1026.8232 24.634371 89.972305 4283453011
-1028.006 27.158424 89.949127 4283584088
-1026.2571 26.585581 89.908974 4283584337
-1024.2294 26.743042 89.721291 4283453521
-1016.5522 26.940893 89.663277 4283781203
-1013.4446 27.053848 89.762474 4283715666
-1010.9937 27.073059 89.649773 4283781202
-1008.5147 27.040445 89.764618 4283715668
-1006.113 26.842598 89.794365 4283846996
-1002.7645 27.117615 89.855957 4283454284
-1002.4541 27.443832 89.838623 4283782222
-991.91272 26.900015 89.730957 4283651156
-1028.2743 28.863832 89.394463 4283518804
-1025.8671 28.563917 89.924316 4283518799
-1024.1907 27.734125 89.81842 4283453268
-1019.0961 28.804764 89.900696 4283977551
-1016.6884 27.76021 89.63324 4284175440
-1013.3182 27.821304 89.923401 4283650134
-1011.426 28.123585 89.583298 4283847001
-1009.8014 27.74472 89.943909 4283781713
-1006.1708 27.899948 89.804916 4283780694
-1003.2583 28.954599 89.834763 4283716183
-1002.2925 28.596027 89.809265 4283715921
-991.93243 27.848228 89.891174 4283847765
-1028.6085 31.297417 89.644211 4283584848
-1025.6935 30.721941 89.961426 4283519062
-1023.1687 31.896988 89.892616 4283453267
-1021.3526 31.944956 89.81131 4283584851
-1018.7856 32.043575 89.616219 4283584340
-1017.1265 32.064121 89.417145 4283387471
-1014.2415 32.122299 89.583801 4283781716
-1011.9832 32.123562 89.716095 4283912528
-1008.7201 32.109993 89.864281 4283716174
-1005.2893 32.162323 89.754967 4283519572
-1003.537 30.887346 89.804314 4283716181
-1002.0584 30.642639 89.759033 4283518545
-999.16113 30.8375 89.947014 4283781463
-1028.5485 33.890915 89.757927 4283519057
-1026.5126 34.609035 89.896324 4283584342
-1023.3447 33.753216 89.819077 4283453779
-1021.3707 32.740818 89.83474 4283584853
-1018.8619 33.326218 89.66124 4283584851
-1017.1579 33.339867 89.415802 4283715666
-1013.4348 33.699722 89.571503 4283650645
-1011.4154 33.746384 89.722443 4283847254
-1008.6526 33.713634 89.610176 4283519572
-1005.4085 33.798672 89.664116 4283782229
-1000.0814 34.819008 89.948303 4283323477
-998.87122 34.849102 89.906372 4283388498
-996.15576 34.114735 89.944038 4283651159
-994.98096 34.938423 89.925293 4284044626
-1030.1665 37.150414 89.981232 4283387987
-1028.3849 36.34597 89.717598 4283781714
-1026.15 36.034088 89.560677 4283650644
-1023.7271 36.242283 89.681984 4283585108
-1020.8568 36.929798 89.684959 4283912530
-1019.1808 36.634155 89.737007 4283715668
-1016.5192 37.095421 89.792427 4283978064
-1013.3162 36.239487 89.45433 4283913044
-1011.0483 36.003918 89.869629 4283781715
-1008.5688 36.091362 89.645004 4283585367
-1005.5955 35.807468 89.772766 4283847762
-1004.0413 35.768539 89.74527 4283585367
-1000.8741 36.45237 89.878929 4283715925
-998.99408 36.294651 89.842354 4283913046
-996.74713 35.377449 89.899719 4284044376
-994.48395 36.775066 89.804565 4284043859
-992.48914 37.076355 89.719421 4283715660
-1030.3979 38.982716 89.442558 4283978579
-1028.7426 38.691841 89.739449 4283847508
-1026.156 38.704983 89.702904 4283651155
-1023.6602 38.796413 89.64534 4283781973
-1020.933 38.92794 89.545853 4283716437
-1018.7799 38.768295 89.578445 4283650390
-1016.282 38.711708 89.787735 4283913044
-1013.899 38.812939 89.797478 4283847767
-1011.2631 39.273678 89.854736 4283782230
-1008.399 38.870445 89.751816 4283913047
-1005.9467 39.160198 89.665733 4284044370
-1003.5582 39.179924 89.829964 4283913301
-1001.2939 39.037205 89.681992 4283781718
-998.75824 38.932446 89.677582 4283651157
-996.95966 39.353767 89.840126 4283913303
-994.36853 38.577629 89.573845 4283585620
-1030.4348 40.824585 89.28009 4284044883
-1028.9053 41.096016 89.494553 4283848022
-1025.6572 41.650211 89.383232 4284044888
-1023.8098 41.080738 89.573906 4283913301
-1021.6759 40.973 89.574936 4284044374
-1018.7856 40.894489 89.714279 4283716437
-1016.1899 41.129166 89.895409 4283978840
-1014.3687 41.247944 89.889603 4283782230
-1011.8067 40.575058 89.885986 4283848279
-1009.3429 40.989403 89.718285 4283978586
-1005.0275 41.078583 89.883018 4283782485
-1003.6161 41.212566 89.279503 4283782485
-1001.2614 41.29277 89.511086 4283978839
-998.81805 41.253654 89.71682 4283781973
-996.22076 41.208702 89.664871 4283782231
-994.29114 41.417934 89.543121 4283650643
-1025.6538 42.592518 87.71991 4283980383
-1023.3123 42.825275 88.506775 4284111454
-1021.188 43.030151 88.794594 4284307542
-1018.7112 43.320759 88.933876 4284307548
-1016.9302 43.676537 88.760612 4284176730
-1013.9458 44.313171 88.789429 4284176729
-1011.213 44.638191 88.92598 4284308059
-1008.7456 44.815083 89.731697 4284242263
-1006.6616 44.140873 89.882256 4284044886
-1003.0287 42.623199 88.942429 4283782745
-1001.2702 42.658382 89.006371 4284110170
-999.08398 42.570526 89.367775 4283782229
-996.03802 42.917522 89.5485 4283716693
-994.44879 42.707321 89.372581 4283650897
-1008.6321 45.190308 88.485886 4284373853
-1006.3525 45.458683 88.734367 4284308573
-1004.3804 45.734737 89.044952 4284242266
-1001.4202 46.204239 88.924782 4284373854
-998.52216 46.740688 88.939354 4284374110
-996.216 47.072292 88.877693 4284570462
-994.78387 47.170898 89.033142 4284176212
-1013.7176 -52.767899 92.208054 4283716181
-1011.4916 -53.025322 92.071205 4284044632
-1009.0278 -52.830795 92.062317 4283978836
-1006.4898 -52.666687 91.531296 4283979345
-1000.9241 -52.533943 90.062836 4283980379
-1015.0598 -51.416969 92.355286 4283846737
-1013.3644 -51.033836 91.876213 4283584593
-1011.3413 -51.366749 91.860764 4283781459
-1008.8766 -51.347477 91.956917 4283847506
-1006.3427 -51.213703 92.092392 4283716179
-1003.7856 -51.075668 91.855751 4283913045
-1001.2755 -50.931099 91.545006 4283913047
-998.86249 -50.72316 91.512619 4283651160
-996.29266 -50.492538 92.010437 4284043863
-991.815 -50.27182 92.000549 4284044633
-1015.2736 -49.079895 92.41568 4283059533
-1013.6236 -49.133953 91.956696 4283649871
-1011.1528 -49.1759 91.823158 4283715410
-1008.7553 -49.098789 91.914421 4283715667
-1006.3586 -49.017735 92.017494 4283584595
-1003.8177 -48.96143 91.768547 4283650131
-1001.2923 -49.021709 91.038017 4283650387
-998.65753 -48.977932 91.003372 4283715921
-996.21893 -48.668251 91.489166 4283846994
-993.6391 -48.394138 91.233963 4283715922
-991.27484 -48.504948 90.882751 4283978324
-988.85498 -48.414955 91.166145 4283781714
-986.30743 -48.361271 91.027092 4283913046
-983.75134 -48.193966 91.494888 4283913302
-981.3233 -48.100182 91.927422 4283913304
-979.64905 -48.077461 91.07019 4283716692
-1015.2303 -45.430893 91.951813 4284108621
-1014.7078 -45.508335 92.124039 4283518798
-1011.1597 -45.092445 92.098236 4283387218
-1008.3431 -45.13068 91.91713 4283650129
-1006.451 -45.051929 92.145096 4283585098
-1004.7183 -45.152252 91.597168 4283715151
-988.87616 -47.458736 91.282768 4283650641
-986.32904 -47.391487 91.160858 4283912530
-983.78101 -47.321564 91.094284 4283846995
-981.23218 -47.282631 91.795822 4284044117
-979.68115 -47.27895 91.750526 4283715922
-1015.7719 -43.428951 91.323944 4283452751
-1013.7922 -43.767075 91.16214 4283519054
-1011.32 -43.899761 91.161003 4283453264
-1008.7673 -43.939999 91.029785 4283518800
-1006.227 -43.830112 91.341423 4283584592
-1003.6793 -43.792572 91.405701 4283650386
-1001.2491 -43.735664 91.435219 4283518800
-998.8175 -43.720146 91.492653 4283453264
-996.30328 -43.652569 91.482956 4283584592
-993.79004 -43.465527 91.841522 4283781457
-991.18079 -43.531929 91.449577 4283387985
-988.67047 -43.569305 91.504959 4283650386
-986.28625 -43.47797 91.607422 4283715667
-983.92633 -43.426079 91.856117 4283519316
-981.39679 -43.202393 91.745239 4283715920
-979.83466 -43.359577 91.731506 4283650132
-1016.2243 -41.570122 91.447037 4283387728
-1013.6484 -41.610287 90.493401 4283519055
-1011.1916 -41.585686 90.518013 4283453007
-1008.8914 -41.588291 90.469444 4283584081
-1006.2563 -41.544315 90.594589 4283453265
-1003.7118 -41.487823 91.142899 4283519316
-1001.1622 -41.423759 91.060265 4283584338
-998.71912 -41.332882 91.074417 4283584592
-996.33215 -41.315117 91.141373 4283519058
-993.77075 -41.238754 91.555099 4283584850
-991.30377 -41.311428 91.399712 4283519060
-988.67596 -41.258713 91.232185 4283715923
-986.15961 -41.200916 91.192642 4283781460
-983.76105 -41.187588 91.434303 4283650128
-981.3288 -41.255814 91.509346 4283650643
-979.92078 -42.456299 91.011414 4283846739
-1017.7753 -38.558956 92.075607 4283518289
-1017.0311 -38.619068 91.882446 4283387472
-993.66296 -39.744278 92.366028 4283519054
-990.63354 -39.985302 92.255707 4283715411
-989.52057 -39.95787 92.206032 4283650132
-983.16876 -39.928188 91.269508 4283519314
-981.25372 -39.888706 91.523392 4283519572
-1018.1314 -36.174194 91.760849 4283387471
-1016.7817 -36.766441 91.742447 4283584076
-1013.1252 -36.959969 92.234833 4283256402
-1018.2515 -33.612522 91.625771 4283452751
-1016.3691 -33.688545 91.550926 4283518543
-1013.8524 -33.338688 91.382874 4283387471
-1011.2101 -33.393307 91.346977 4283387216
-1008.7257 -33.19899 91.26416 4283518292
-1006.1853 -33.236858 91.059258 4283321938
-1003.7969 -33.147961 91.115387 4283453264
-1001.36 -33.152542 91.763138 4283387728
-998.75085 -33.038082 91.917526 4283453008
-996.23346 -33.027832 92.008484 4283519053
-993.7337 -32.907837 91.958786 4283519057
-991.23639 -32.992615 92.113007 4283321939
-988.74652 -32.767891 92.221077 4283584852
-986.35822 -32.760841 92.234222 4283715664
-983.55908 -32.842079 92.237862 4283519059
-982.05933 -32.671581 92.452271 4283912790
-1018.3832 -31.237864 91.220505 4283190862
-1016.1821 -31.243675 90.777245 4283452495
-1013.7975 -31.26409 90.70459 4283387473
-1011.3417 -31.161449 90.625374 4283321679
-1008.8209 -31.214128 90.532341 4283322194
-1006.2216 -31.297491 90.70327 4283322192
-1003.7218 -31.207676 90.899597 4283518545
-1001.2567 -31.362871 91.144028 4283322192
-998.86572 -31.259722 91.468536 4283387217
-996.29333 -31.323795 91.502769 4283321937
-993.75647 -31.211405 91.285759 4283584335
-991.18433 -31.252342 91.831032 4283453522
-988.67426 -31.157486 91.800026 4283519314
-986.2558 -30.813242 91.892311 4283387988
-983.86426 -31.231936 92.018059 4283518806
-982.12793 -31.368048 92.058014 4283585107
-1018.5139 -28.555473 91.353813 4283387215
-1016.1663 -28.60524 91.221786 4283386958
-1013.7034 -28.545204 90.912926 4283453264
-1011.3394 -28.678068 90.943649 4283387216
-1008.7969 -28.714964 90.981888 4283453008
-1006.3058 -28.71369 91.123283 4283322192
-1003.6642 -28.818789 91.184662 4283387471
-1001.1661 -28.795189 91.335594 4283256401
-998.6665 -28.712362 91.87603 4283387469
-996.36591 -28.81638 91.827805 4283453264
-993.75153 -28.840553 91.651802 4283387474
-991.19348 -29.120979 91.702293 4283387729
-988.65387 -28.784029 91.930237 4283715665
-986.15002 -28.798676 91.942947 4283584338
-983.85925 -28.598806 92.136673 4283584851
-982.30048 -29.582401 92.24382 4283912530
-1018.8143 -26.287014 91.311844 4283387214
-1016.2667 -26.387877 90.852325 4283387472
-1013.6985 -26.429619 90.593597 4283453010
-1011.1569 -26.479626 90.615181 4283453263
-1008.7645 -26.44791 90.686058 4283453009
-1006.3008 -26.38735 90.750725 4283387217
-1003.7721 -26.348017 91.10743 4283518542
-1001.2131 -26.284224 91.284897 4283387214
-998.66443 -26.238489 91.59407 4283387471
-996.30023 -26.195528 91.537468 4283518542
-993.84741 -26.163155 92.057411 4283453266
-991.25952 -26.113794 92.139015 4283387730
-988.84833 -26.336351 92.152634 4283453524
-986.18939 -26.230228 92.422935 4283584339
-983.59485 -26.33448 92.190422 4283715668
-1020.2257 -23.10512 90.887978 4283256907
-1019.0826 -23.948563 91.68956 4283190607
-1016.7944 -23.8696 92.28698 4283386957
-992.29163 -24.738953 92.285156 4283584586
-988.94788 -24.97691 92.05275 4283780438
-1020.3888 -21.124474 91.006256 4283256398
-1018.8024 -21.10169 91.430222 4283518543
-1016.2242 -20.973709 91.799095 4283387728
-1014.0151 -20.535944 91.634773 4283452751
-1011.5361 -20.312763 91.517853 4283387473
-1008.1931 -20.055971 92.057877 4283583826
-1006.4429 -20.049866 90.822105 4283387216
-1004.1885 -20.119675 92.461182 4283454295
-986.35236 -20.252079 92.465309 4283650388
-984.92133 -20.255768 92.416565 4284174929
-1020.5714 -18.784273 91.462479 4283321420
-1018.8141 -19.196861 90.717018 4283518284
-1016.1333 -19.48328 90.345261 4283256659
-1013.7843 -18.96319 90.383942 4283387215
-1011.3397 -18.951342 90.56041 4283321936
-1008.7566 -18.831453 91.256363 4283518544
-1006.1733 -18.850546 90.522163 4283387472
-1003.711 -18.836597 91.348587 4283387217
-1001.2568 -18.84881 91.555641 4283518545
-998.83649 -18.765989 91.625328 4283453009
-996.30328 -18.707342 91.687126 4283387727
-993.72375 -18.829411 91.612816 4283387472
-991.16888 -18.853569 91.538734 4283584594
-988.6778 -18.778374 91.432777 4283650387
-986.19348 -18.885387 91.975914 4283519316
-984.35992 -18.538536 91.829727 4283781713
-1020.8005 -16.096611 91.643784 4283256143
-1019.1163 -16.085104 92.115921 4283190610
-1016.4891 -15.167203 92.29409 4283321934
-1009.5461 -17.392609 91.837219 4282994249
-1005.3505 -16.511328 91.996689 4283452755
-1003.5017 -16.575394 91.951691 4283584080
-1001.0911 -16.424417 92.009148 4283321425
-998.78436 -16.247499 92.003807 4283453008
-996.6322 -16.314337 92.003944 4283584340
-993.73779 -16.288492 91.882622 4283453265
-991.40601 -16.560637 91.929993 4283584593
-988.68726 -16.988377 91.82251 4283715409
-985.72931 -16.540724 92.036621 4283650387
-984.47156 -16.449463 91.873779 4283716433
-1021.1711 -13.754439 91.44342 4283387471
-1018.783 -14.226708 92.187935 4283453008
-1016.5115 -14.370708 92.247337 4283387214
-1012.7875 -13.959192 92.48497 4283322451
-1011.9205 -13.509545 92.391617 4283453008
-1008.8645 -13.106611 92.46711 4283453004
-1005.4449 -14.56871 92.400124 4283321940
-1000.0374 -14.432767 92.254211 4283321411
-998.30524 -14.218067 92.187614 4283191117
-996.77106 -14.365537 92.122757 4283190867
-993.84003 -14.277791 91.923752 4283453523
-991.6554 -13.874486 92.034294 4283387730
-988.89209 -14.313644 92.354836 4283518807
-985.24188 -14.063145 92.206688 4283716435
-984.77716 -13.574084 92.198647 4283519829
-1022.5083 -10.589458 91.415283 4283190609
-1021.2651 -11.169443 91.325653 4283321678
-1018.8267 -10.97103 91.446213 4283453009
-1016.3297 -10.865811 91.512505 4283321934
-1013.6889 -10.972324 91.754791 4283387473
-1011.2365 -10.886579 91.661964 4283518546
-1008.7723 -10.961081 91.81382 4283387472
-1006.2078 -11.045466 91.71376 4283649616
-1003.8594 -10.982776 91.619972 4283584336
-1001.278 -10.707258 91.428467 4283387730
-998.7323 -10.642912 91.323524 4283584079
-996.20911 -10.593967 91.339592 4283649872
-993.67047 -10.579372 91.265343 4283649875
-991.29962 -10.565672 91.95916 4283650384
-988.99689 -10.179123 92.347145 4283256916
-986.36371 -10.395516 92.045235 4283781974
-984.84747 -10.868475 92.114868 4283585109
-1022.7112 -8.4769506 90.97995 4282927953
-1021.1679 -8.7125378 90.816399 4283387213
-1018.7559 -8.7883453 90.617767 4283452750
-1016.4162 -8.931922 90.71817 4283453008
-1013.8062 -8.720274 90.781395 4283518545
-1011.2556 -8.6820097 90.700226 4283453009
-1008.7095 -8.7320261 90.896858 4283518544
-1006.1669 -8.8198652 90.952103 4283453008
-1003.7802 -8.8027182 90.981209 4283518800
-1001.3495 -8.7303019 90.861885 4283518801
-998.80975 -8.6874046 90.819397 4283584337
-996.23914 -8.6957502 91.053413 4283584336
-993.66888 -8.7805929 91.031067 4283518800
-991.21765 -8.6302824 91.610298 4283519056
-988.84564 -8.6075687 91.949493 4283584596
-986.3418 -8.7935734 91.650665 4283584850
-984.91162 -9.2070951 90.967346 4283649873
-1022.8657 -6.1849694 90.468307 4283125073
-1021.2673 -6.3499622 90.58947 4283387469
-1018.5001 -6.4264846 90.721672 4283321938
-1016.2698 -6.0663638 90.976639 4283518542
-1013.8033 -6.2337842 90.955032 4283519059
-1011.3423 -6.190444 90.904556 4283387472
-1008.762 -6.3000779 90.753983 4283321936
-1006.1915 -6.2102976 91.216629 4283256655
-1003.6614 -6.260128 91.211487 4283387216
-1001.2456 -6.2521248 91.18187 4283518542
-998.83649 -6.2249951 91.195793 4283453264
-996.2937 -6.24751 91.265129 4283519059
-993.74182 -6.1553364 91.409943 4283453266
-991.18701 -6.2154646 91.64904 4283584593
-988.75342 -6.290494 91.509651 4283716179
-986.24445 -6.2929335 91.720459 4283650127
-1023.1488 -3.6846309 90.900688 4283190608
-1021.5082 -3.8727729 90.470436 4283452495
-1018.1285 -3.5250649 90.591202 4283584333
-1016.2065 -3.7705755 90.681999 4283453263
-1013.6907 -3.7356071 90.576744 4283649873
-1011.2778 -3.8513792 91.002251 4283453265
-1008.8026 -3.7953315 90.613068 4283518800
-1006.2422 -3.7027264 91.141457 4283518800
-1003.6902 -3.7628388 91.058884 4283453265
-1001.2311 -3.7627034 91.005898 4283518544
-998.73383 -3.8224244 91.013252 4283387728
-996.30524 -3.762275 91.152657 4283584850
-993.85315 -3.7317636 91.136841 4283584591
-991.22919 -3.8179963 91.577927 4283453267
-988.68909 -3.7831528 91.600853 4283519056
-986.66058 -3.7859285 91.788956 4283454036
-1023.3561 -1.2357963 90.873619 4283583822
-1021.2973 -1.2515107 91.459251 4283321678
-1018.9406 -1.0769624 91.984459 4283453263
-1016.0322 -1.1000894 91.797951 4283321935
-1013.5884 -1.1891274 91.740349 4283583823
-1011.2076 -1.1886141 92.159348 4283518800
-1008.8571 -1.1793151 92.140984 4283715409
-1006.9659 -0.81536865 92.178741 4283519058
-1003.8085 -1.0463911 91.979233 4283518801
-1001.1898 -0.71804971 91.922623 4283518802
-998.45422 -0.92344558 91.777832 4283453521
-996.47955 -0.93528032 91.963333 4283584595
-993.60223 -0.95372772 92.087753 4283584594
-991.25671 -1.959452 91.776855 4283584853
-988.54651 -1.9895203 91.907074 4283650383
-986.66455 -2.4777184 91.483063 4283913038
-1023.5104 1.2305231 90.891418 4283387471
-1021.2156 1.2224765 90.482933 4283256143
-1018.7996 1.1686587 90.776665 4283387471
-1016.2947 1.244629 90.554451 4283518543
-1013.7353 1.0898849 90.817123 4283584082
-1011.1481 1.2228925 91.019875 4283453264
-1008.6638 1.2894053 90.98027 4283518545
-1006.3068 1.177285 91.121124 4283387728
-1003.8322 1.192275 91.255333 4283518802
-1001.2665 1.2401214 91.215042 4283387731
-998.73083 1.2448963 90.776848 4283519055
-996.18396 1.2917548 90.823769 4283650385
-993.78723 1.1893386 91.28627 4283519313
-991.39972 1.2366124 91.63633 4283650386
-988.81769 1.2670449 92.00206 4283519314
-987.16321 1.392019 91.806198 4283781202
-1023.6909 3.7432497 90.64679 4283453008
-1021.1594 3.8045261 90.541199 4283387472
-1018.7048 3.7490242 90.742332 4283321936
-1016.3391 3.7970297 90.643288 4283387728
-1013.7766 3.7602015 90.521042 4283453265
-1011.0981 3.8071649 91.041267 4283453266
-1008.6797 3.8397305 90.803131 4283453267
-1006.2659 3.7528806 90.802795 4283453266
-1003.8514 3.709168 91.021584 4283387472
-1001.338 3.7734914 91.005486 4283518800
-998.78876 3.8576703 90.995811 4283322450
-996.25763 3.8416355 91.106071 4283453267
-993.65936 3.7294483 91.136887 4283650129
-991.14301 3.7701755 91.279099 4283584848
-988.81561 3.634069 91.471863 4283781201
-987.41974 3.5930691 91.311752 4283846481
-1023.6253 6.2062411 90.671059 4283321936
-1021.2165 6.2952991 91.254723 4283321678
-1018.6272 6.135745 91.088333 4283453007
-1016.2209 6.2388825 91.332481 4283518545
-1013.8667 6.2533717 91.33654 4283453010
-1011.2886 6.2172179 91.565559 4283453008
-1008.7188 6.3103652 91.620972 4283453523
-1006.2328 6.3146276 91.699921 4283584082
-1003.7594 6.3790693 91.871872 4283518802
-1001.3593 6.3745475 92.059364 4283453263
-998.83081 6.3145103 91.82486 4283715407
-996.39819 6.1098862 91.843567 4283519316
-993.62866 6.0751328 91.700882 4283715667
-991.24738 5.8556199 91.76825 4283518802
-988.74603 5.97824 91.904747 4283846740
-987.48938 5.2859268 91.914215 4283715405
-1025.3618 9.1299858 90.282837 4283452752
-1023.6963 8.7372684 90.524132 4283321937
-1021.2553 8.7397394 90.990013 4283452756
-1018.6826 8.7074976 91.228157 4283321939
-1016.1671 8.7747355 91.20166 4283387730
-1013.6922 8.7040176 91.173859 4283519059
-1011.3431 8.7367353 91.582069 4283584593
-1008.7722 8.7260942 91.570763 4283387986
-1006.1886 8.7036524 91.556915 4283584337
-1003.7097 8.8052969 91.715218 4283650129
-1001.1579 8.7253189 91.556862 4283518801
-998.81262 8.6613016 91.622726 4283584594
-996.32605 8.8371382 91.816216 4283584596
-993.73602 8.8139029 91.902939 4283650131
-991.25012 8.7795763 92.050194 4283781205
-989.04767 8.76686 91.94986 4283716180
-1025.5258 11.326182 90.304062 4283322447
-1023.7149 11.325566 90.849411 4283321937
-1021.2639 11.254041 91.118271 4283387472
-1018.751 11.258442 91.347733 4283387473
-1016.1882 11.360169 91.322708 4283322192
-1013.7188 11.289805 91.104378 4283322193
-1011.2006 11.230963 91.504364 4283453780
-1008.8425 11.250607 91.416176 4283453522
-1006.2776 11.37286 91.314888 4283584337
-1003.7491 11.308593 91.248573 4283453523
-1001.1734 11.188619 91.501457 4283453266
-998.65607 11.24011 91.474289 4283584339
-996.24756 11.296714 91.558205 4283584594
-993.87146 11.334023 91.606209 4283650131
-991.28387 11.320994 91.867905 4283650387
-989.2406 11.171994 91.446747 4283650645
-1025.7296 13.784173 90.276817 4283452752
-1023.6569 13.770343 90.623215 4283256400
-1021.2946 13.614077 90.840942 4283125330
-1018.8119 13.770721 90.941063 4283518547
-1016.2804 13.774856 90.889824 4283387474
-1013.706 13.689671 90.695618 4283453267
-1011.1948 13.71752 90.971725 4283584336
-1008.7414 13.776974 91.063667 4283387985
-1006.3532 13.715669 91.086555 4283453520
-1003.825 13.727631 90.871635 4283650639
-1001.2783 13.704303 91.052597 4283519056
-998.72125 13.713873 90.883156 4283584850
-996.16022 13.848229 91.320145 4283847250
-993.68018 13.783327 91.683273 4283519312
-991.33112 13.682469 91.714035 4283715923
-989.38751 13.710475 91.81324 4283847252
-1026.0116 16.281469 90.387947 4283584333
-1023.671 16.330862 90.365059 4283518543
-1021.2706 16.110342 90.593071 4283321935
-1018.7827 15.92288 90.686386 4283649872
-1015.7603 16.145208 90.311661 4283584336
-1013.8095 16.233805 90.316948 4283518544
-1011.36 16.244541 90.515633 4283519058
-1008.5749 16.309681 90.542595 4283650128
-1006.097 16.285061 90.937828 4283650130
-1003.7507 16.234154 91.123848 4283715663
-1001.371 16.261557 90.905472 4283387731
-998.74023 16.501381 90.820045 4283715665
-996.20062 16.351864 90.65049 4283650388
-993.71692 16.229416 90.954147 4283650129
-991.14417 16.266582 91.228317 4283650385
-989.46106 16.115856 91.277084 4283978325
-1026.3385 18.806845 90.520493 4283453264
-1023.7573 18.771255 90.469955 4283518801
-1021.0035 19.175705 90.475906 4283518286
-1019.0015 19.521746 90.541618 4283387986
-1015.9084 18.591864 90.270157 4283322452
-1013.909 18.622622 90.307327 4283584595
-1011.5477 18.636736 90.187302 4283715409
-1008.6407 18.731543 90.30127 4283715665
-1006.2242 18.744312 90.321526 4283650129
-1003.6771 18.692875 90.533989 4283584593
-1001.2752 18.666346 90.628212 4283715666
-998.86438 18.831366 90.819664 4283584595
-996.30402 18.663115 90.524719 4283715924
-993.71893 18.70562 90.434669 4283650641
-991.19067 18.782524 91.214073 4283847251
-989.68884 18.657352 91.289215 4283846998
-1027.5287 21.890495 90.363792 4283322187
-1026.2957 21.148876 90.376167 4283387731
-1023.8565 21.22064 90.6493 4283387985
-1021.2542 21.293535 91.212425 4283387471
-1018.6887 21.258308 90.896225 4283387729
-1016.158 21.332359 90.807854 4283387984
-1013.7656 21.260553 90.797455 4283519315
-1011.373 21.340334 90.681541 4283518803
-1008.8317 21.386866 90.761162 4283519056
-1006.2913 21.420488 91.137482 4283519055
-1003.6592 21.388493 90.858742 4283650129
-1001.2177 21.344181 91.023872 4283453010
-998.79303 21.224499 91.38401 4283519059
-996.32611 21.198671 91.349304 4283715925
-993.8028 21.206032 91.104851 4283716179
-991.29108 21.25717 91.140938 4283781971
-989.78723 20.342697 91.619446 4283846995
-1027.749 23.904367 90.353279 4283387472
-1026.2184 23.711658 90.595467 4283453265
-1023.8095 23.792095 91.165627 4283518801
-1021.2698 23.731745 91.370758 4283453010
-1018.7309 23.720406 91.256775 4283584338
-1016.2061 23.750391 91.085159 4283650386
-1013.6485 23.803646 90.862747 4283518546
-1011.2463 23.844845 91.055084 4283715410
-1008.8312 23.708754 90.781738 4283584596
-1006.3145 23.71434 90.699814 4283650387
-1003.7574 23.808517 90.878304 4283584597
-1001.217 23.708488 90.817696 4283519314
-998.67188 23.686646 90.613113 4283715922
-996.23926 23.735268 90.960625 4283715668
-993.83051 23.735514 91.115387 4283584850
-991.55402 23.773855 91.046989 4283584851
-1028.2604 26.268858 90.571411 4283518803
-1026.1536 25.845215 90.412094 4283453262
-1023.4769 26.116289 90.475273 4283453264
-1021.2827 26.133776 90.719254 4283584336
-1018.8204 26.230055 90.788185 4283519058
-1016.2163 26.047169 90.574036 4283715665
-1013.8322 26.093742 90.632812 4283584338
-1011.3049 25.916426 90.488045 4283519314
-1008.7786 25.990747 90.541847 4283584851
-1006.3789 26.134178 90.743347 4283584594
-1003.8819 26.285448 90.685593 4283453778
-1001.2465 26.250238 90.69828 4283650384
-998.75165 26.260979 90.692062 4283650130
-996.17242 26.249929 90.717567 4283650388
-993.65717 26.357386 90.87104 4283519060
-991.51379 26.176022 90.567459 4283716436
-1028.2551 28.414215 90.25296 4283715667
-1026.7809 29.095894 90.169548 4283649874
-1023.6269 28.754744 90.736717 4283584592
-1021.16 28.736526 90.684258 4283453263
-1018.7688 28.747011 90.676056 4283650130
-1016.2946 28.88954 90.751846 4283715665
-1013.834 28.809734 90.667 4283650389
-1011.1986 28.953856 90.655334 4283650389
-1008.6615 28.835861 90.717888 4283584852
-1006.267 28.894426 90.94577 4283715667
-1003.9136 28.800035 90.331909 4283781717
-1001.2513 28.800253 90.345551 4283650389
-998.76935 28.739761 90.602524 4283781458
-996.23297 28.805077 90.842728 4283781461
-993.69141 28.875957 91.278557 4283912534
-991.76636 28.85861 91.358826 4283913046
-1028.2759 31.436964 90.078209 4283781204
-1026.5725 31.44566 90.465088 4283584593
-1023.8936 31.026114 90.517471 4283519057
-1021.168 31.035414 90.407585 4283453519
-1018.67 31.189672 90.473457 4283715664
-1016.1686 31.270723 90.878204 4283388244
-1013.705 31.028267 90.513672 4283715927
-1011.2011 31.063339 90.544373 4283715923
-1008.7651 30.938501 90.583572 4283650386
-1006.2358 31.223156 90.777519 4283716179
-1003.7637 31.488422 90.250732 4283716180
-1001.1777 31.289043 90.557808 4283650388
-998.81451 31.305489 90.693825 4283781715
-996.32996 31.29545 90.834618 4283781463
-993.75677 31.295683 91.231743 4283846740
-991.98773 31.132271 90.939392 4283847509
-1028.9374 33.862446 90.193108 4283518803
-1026.282 33.415321 90.650459 4283519314
-1024.2124 33.673092 90.489853 4283584852
-1021.2453 33.995964 90.523079 4283519314
-1018.645 34.191109 90.211632 4283519317
-1015.9063 33.75457 90.639992 4283585108
-1013.7399 33.781162 90.215622 4283650645
-1010.9705 33.767227 90.444252 4283781460
-1009.8719 33.979286 90.375412 4284043603
-1006.6131 33.785385 90.336861 4283847254
-1003.6631 33.715466 90.40184 4283847253
-1001.1777 33.767406 90.749992 4283584593
-998.70654 33.703144 90.481621 4283519316
-996.3064 33.566769 90.497734 4283847509
-993.77484 33.681976 90.881607 4283781973
-992.07959 33.446911 90.947174 4283847508
-1030.1283 36.370514 90.245934 4283322450
-1029.3298 36.236431 90.373207 4283650385
-1026.15 37.222786 90.29071 4283584855
-1023.6526 36.249107 90.24028 4283453265
-1021.5063 36.050049 90.34716 4283650641
-1018.3234 35.712646 90.195747 4283454037
-1016.1467 35.863964 90.192406 4283650389
-1014.1115 36.15218 90.300011 4284109398
-1011.2934 36.593998 90.411758 4283846996
-1009.369 36.594341 90.232506 4283650384
-1006.5679 36.323971 90.145195 4283781971
-1003.7122 36.296341 90.209389 4283650645
-1001.4213 36.178421 90.401604 4283781718
-998.40302 36.239777 90.407112 4283847510
-996.1225 36.281494 90.581673 4283847511
-993.69458 36.084335 90.460526 4283847509
-992.3924 35.852875 90.476242 4283781466
-1026.2517 38.7981 90.391914 4283716182
-1023.7859 38.397255 90.228165 4283716690
-1021.8956 38.505344 90.160751 4283847255
-1016.6427 39.845055 90.065857 4283848280
-1012.8572 38.644508 90.297104 4283848024
-1011.1238 38.26165 90.251038 4284044118
-1008.961 38.663994 90.172165 4283913047
-1006.3317 38.556667 90.119385 4283913045
-1004.0389 38.453777 90.27314 4283650900
-1001.2975 38.659569 90.401031 4283913299
-998.68225 38.520584 90.373528 4283781973
-996.0401 38.606602 90.53466 4283847763
-993.40814 38.720615 90.447525 4283716691
-1028.1809 40.814819 90.383759 4283585620
-1026.3872 40.964474 90.258301 4283978837
-1023.5646 41.502838 90.146736 4283651156
-1020.7057 41.422119 90.176384 4283847766
-1018.5945 41.977604 90.092468 4283781974
-1016.6877 41.583107 90.031616 4283978840
-1013.1334 41.273258 90.436333 4283913301
-1011.0779 41.437389 90.523918 4283847766
-1008.4794 41.243519 90.274567 4283978583
-1006.2712 41.223324 90.217705 4283978840
-993.68146 40.527134 90.113869 4283519572
-1022.94 42.53112 90.05072 4283718226
-1020.8494 42.60516 90.305145 4284110425
-1018.4078 42.74958 90.159897 4284176212
-1016.1852 43.002319 90.702385 4284110426
-1013.7005 43.120964 91.076736 4283913817
-1011.2576 43.406002 90.964172 4284044886
-1008.6602 43.625435 90.894157 4283978837
-1005.9019 43.578075 90.423531 4283979098
-1003.7365 43.799698 90.815277 4284044631
-1001.241 43.974987 90.682053 4283979094
-998.8053 43.926262 90.646408 4283848021
-996.40466 44.066387 90.58326 4283782487
-994.39764 44.022877 90.666191 4283977809
-1005.1249 45.253284 90.046936 4284504668
-1003.4841 45.196335 90.540527 4284110679
-1001.1315 45.430725 90.706078 4284044885
-998.68738 45.699314 90.601952 4284044887
-996.29565 45.942715 90.59742 4283979608
-994.53162 46.007168 90.43177 4283847507
-1013.901 -53.310265 92.833763 4283913303
-1011.8026 -53.160858 92.766479 4284175698
-1015.311 -50.827236 92.867828 4283387473
-1014.4012 -51.317898 92.754234 4283519057
-1010.4258 -51.052368 92.636719 4283781455
-1008.4426 -51.170738 92.511948 4283912787
-1006.152 -50.858768 92.575775 4283650645
-1004.8306 -51.513931 92.682617 4283781979
-996.32672 -50.478416 93.105339 4284109909
-994.96405 -50.494877 93.031151 4283848529
-1015.6016 -48.72049 93.34137 4283321681
-1014.3604 -47.765888 94.102234 4283453010
-995.88739 -49.53936 92.593925 4283912784
-994.69092 -49.294727 92.559631 4283912785
-1015.8659 -46.223888 93.388802 4283649874
-1013.6279 -46.236927 93.716919 4283846479
-1011.2686 -46.396713 94.162415 4283518800
-1008.8102 -46.387245 94.159782 4283584593
-1006.1984 -46.218143 94.138451 4283649871
-1003.7067 -45.60577 94.231445 4283453520
-1001.1567 -46.115353 94.384468 4283584338
-998.72772 -46.093945 94.109406 4283715666
-996.17139 -45.973675 93.644638 4283650385
-993.67261 -45.97345 93.635612 4283715667
-991.29694 -46.001278 93.648415 4283846992
-988.85693 -45.896542 93.62426 4283846995
-986.31378 -45.801212 93.708061 4283781716
-983.81104 -45.726288 93.858269 4283716178
-981.19196 -45.758415 94.103867 4283847253
-979.50128 -45.740589 93.790413 4283650129
-1016.5817 -44.075066 93.011757 4283518034
-1003.5618 -44.922863 92.64814 4283584597
-1001.313 -44.85318 93.128143 4283649871
-998.76678 -44.787949 93.119629 4283519058
-996.22363 -44.725445 93.031281 4283650382
-993.67859 -44.718201 92.960304 4283780943
-991.1825 -44.660187 92.925301 4283649870
-988.74371 -44.687927 93.012444 4283716174
-986.25513 -44.571159 92.962006 4283585105
-983.57501 -44.468204 93.034065 4283519571
-981.23077 -44.368805 93.220703 4283846994
-979.58264 -44.452232 93.3526 4283519057
-1016.4035 -40.277122 93.188065 4283387467
-1013.8415 -40.104271 93.457909 4283584333
-1011.6777 -40.088749 93.2006 4283387473
-1015.8208 -38.808224 93.13279 4283387215
-1013.7628 -38.735397 93.355141 4283518802
-1011.2764 -38.841938 93.794014 4283453263
-1008.7242 -38.76115 93.90863 4283518801
-1006.208 -38.702232 93.882248 4283518802
-1003.6649 -38.636227 93.896988 4283518544
-1001.1722 -38.52726 94.057381 4283518800
-998.80469 -38.680756 93.910858 4283518801
-996.32434 -38.545357 93.933708 4283518799
-993.77258 -38.516087 93.782356 4283519057
-991.27911 -38.461071 94.125221 4283387729
-988.72113 -38.39632 94.347023 4283715667
-986.17139 -38.330479 94.342079 4283519058
-983.65924 -38.340763 94.274315 4283650643
-981.21753 -38.406517 94.147285 4283715666
-1017.8353 -35.270477 92.631561 4283322192
-1015.8915 -36.135128 92.838554 4283518287
-1013.8566 -36.256016 93.204056 4283518543
-1011.2739 -36.373703 93.338676 4283453262
-1008.8179 -36.317394 93.495811 4283453007
-1006.29 -36.220856 93.495461 4283584080
-1003.7435 -36.15469 93.507706 4283453267
-1001.1829 -36.282452 93.567772 4283453266
-998.65247 -36.3452 93.319054 4283387474
-996.19781 -36.214279 93.496078 4283453008
-993.87054 -36.292793 93.530815 4283518802
-991.3092 -36.228912 93.670586 4283453265
-988.77289 -36.288342 93.987793 4283584339
-986.25024 -36.169235 94.205544 4283518801
-983.65649 -36.282887 94.036766 4283715666
-981.59406 -36.373894 94.262001 4283584850
-1018.0026 -34.956085 92.630737 4283322190
-1015.916 -34.820698 92.907799 4283256143
-1013.5712 -34.559227 93.231148 4283453266
-1011.2504 -34.644753 93.093071 4283518799
-1008.7428 -34.515545 93.283157 4283453264
-1006.3507 -34.447151 93.13279 4283387472
-1003.7994 -34.298191 93.285599 4283453520
-1001.2819 -34.383888 93.281837 4283518801
-998.72656 -34.264809 93.464844 4283387473
-996.15314 -34.251995 93.482094 4283584338
-993.64746 -34.097504 93.465004 4283584338
-991.26971 -34.118687 93.489487 4283453009
-988.8197 -33.930523 93.689171 4283781202
-986.26709 -33.78059 93.840668 4283584593
-983.7464 -33.836021 93.700737 4283584596
-981.82062 -33.897366 93.593018 4283781716
-986.36914 -31.902472 92.736351 4283453525
-983.73425 -31.557415 92.679321 4283650391
-995.44391 -28.717579 92.668182 4282797649
-993.95215 -27.965704 92.607536 4283452239
-991.40698 -27.911442 92.589951 4283584083
-989.81604 -27.857597 92.616791 4283912781
-985.92792 -28.391684 92.740929 4283780948
-983.52576 -28.721519 92.717239 4283715664
-982.30048 -28.490147 92.860428 4283650641
-1017.5934 -25.061722 92.877991 4282993750
-1017.2753 -25.053741 92.866943 4283584596
-993.96857 -27.329889 92.594948 4283125839
-991.55029 -27.266663 92.602722 4283518803
-988.26703 -26.173756 92.627548 4283715412
-986.21912 -26.090412 92.668419 4283453523
-984.33649 -26.053362 92.60318 4283649876
-982.18207 -27.329605 93.261902 4283978068
-1017.9043 -23.423994 92.74575 4283191120
-1015.9459 -23.70042 93.130463 4283387471
-1013.6128 -23.711512 93.393883 4283453007
-1011.2551 -23.686569 93.371758 4283387472
-1008.8264 -23.714787 93.571663 4283583822
-1006.2838 -23.650784 93.509087 4283387217
-1003.7448 -23.588549 93.368088 4283584082
-1001.2153 -23.548389 93.566963 4283583566
-998.6781 -23.542976 93.45845 4283452753
-996.15973 -23.574059 93.119553 4283518801
-993.81952 -23.646765 93.233902 4283322449
-991.31854 -23.614115 93.34758 4283518799
-988.80786 -23.637833 93.038185 4283518803
-986.25061 -23.736141 93.097237 4283453265
-983.86481 -23.798512 93.078575 4283650641
-1017.9298 -22.081228 92.74617 4283453010
-1016.3411 -22.168478 92.788177 4283583822
-1013.5485 -21.617329 92.868645 4283387473
-1011.1112 -21.433168 92.918457 4283584080
-1008.8024 -21.281433 93.438789 4283584338
-1006.3367 -21.207813 93.326492 4283453008
-1003.8044 -21.211344 93.359787 4283321938
-1001.2241 -21.190651 93.334198 4283387472
-998.6897 -21.34387 93.316605 4283453265
-996.16797 -21.331438 93.236526 4283584337
-993.6778 -21.192492 93.341209 4283584334
-991.25562 -21.289654 93.278458 4283519058
-988.79083 -21.23262 93.040817 4283453522
-986.32526 -21.44582 93.235428 4283650130
-984.11621 -21.269924 93.506271 4283715923
-1003.1802 -19.926634 92.557106 4283585106
-1002.2793 -19.904011 92.52594 4283453262
-998.76569 -19.967388 92.744545 4283584592
-996.22327 -19.904102 92.652824 4283649361
-993.78302 -19.842463 92.684578 4283780689
-992.24646 -19.803757 92.656799 4283519825
-986.85535 -18.967075 92.778931 4283519061
-984.26056 -19.568102 93.110771 4283453779
-1018.3078 -16.404467 92.876465 4283321423
-1016.3334 -16.320871 93.08876 4283387216
-1013.7692 -16.167713 93.168098 4283453007
-1011.2569 -16.188513 93.276466 4283452751
-1008.7164 -16.087736 93.350105 4283387215
-1006.2924 -16.017284 93.283623 4283518543
-1003.8466 -16.03447 92.79612 4283518546
-1001.2539 -16.033478 93.063644 4283321682
-998.86066 -16.154785 92.763283 4283649358
-995.78711 -15.960594 93.028976 4283453013
-993.92365 -16.307524 92.741226 4283256656
-991.16968 -15.983958 92.884941 4283649872
-988.67346 -15.889341 92.993416 4283650131
-986.5451 -15.850763 93.137505 4283781713
-984.39825 -15.415622 92.940002 4283651411
-1020.131 -12.86964 92.789246 4283125072
-1018.4826 -13.041679 92.73275 4283387216
-1016.1639 -13.573433 92.811226 4283452750
-1013.9741 -13.754343 92.81945 4283518800
-1011.241 -13.80764 93.011658 4283452753
-1008.7796 -13.817378 92.919243 4283387216
-1006.2963 -13.614833 93.009171 4283453010
-1003.6456 -13.813901 92.945389 4283715153
-1001.2147 -13.773958 92.989243 4283518543
-998.77264 -13.55017 92.801071 4283453008
-995.9563 -13.429729 92.816635 4283387730
-993.86206 -12.847367 92.874031 4283584594
-991.01532 -13.77494 93.027008 4283519058
-988.71649 -13.716859 93.09668 4283519058
-986.36664 -13.615553 93.066078 4283781202
-984.42725 -14.041919 93.257286 4283716179
-1020.1528 -12.233566 92.689178 4283453266
-1018.7189 -12.199043 92.683136 4283453520
-1015.9761 -12.09846 92.738632 4283583567
-1013.6011 -12.156555 92.776855 4283649357
-1010.9478 -12.098868 92.790215 4283386958
-1008.671 -12.141895 92.848404 4283387216
-1006.5182 -12.072599 92.943718 4283387472
-1003.6249 -12.146897 93.030304 4283584079
-1001.186 -11.961012 92.981651 4283453265
-998.64062 -11.897426 92.99633 4283518546
-996.22144 -11.849708 92.952141 4283453266
