# .PCD v0.7 - Point Cloud Data file format
VERSION 0.7
FIELDS x y z rgba
SIZE 4 4 4 4
TYPE F F F U
COUNT 1 1 1 1
WIDTH 1014
HEIGHT 1
VIEWPOINT 0 0 0 1 0 0 0
POINTS 1014
DATA ascii
-1063.4133 28.04097 32.341934 4281283640
-1056.1265 28.345951 31.535461 4281676860
-1054.0936 28.562332 31.319824 4282005823
-1051.9823 28.66758 31.914795 4281284148
-1044.5525 29.121601 31.54303 4281349426
-978.37872 -7.6443496 33.790344 4281086004
-975.99768 -7.5868454 33.689484 4281742146
-1063.1306 27.242062 34.839828 4281152813
-1061.3997 26.611931 34.897568 4280629036
-1055.7981 27.43441 34.689575 4281677117
-1063.2434 27.668835 33.867477 4281284658
-1056.2887 27.979053 33.736977 4281612348
-1053.4337 28.239876 33.987263 4281284151
-1051.3503 28.380871 33.836124 4281350201
-1049.1664 28.704079 34.007263 4281612345
-1045.8433 28.816355 33.810993 4281611064
-1044.0242 28.906534 34.239204 4281284150
-1041.1296 29.43042 34.372227 4281611327
-1039.7798 29.609161 34.833984 4281743170
-1035.6906 29.718201 34.77417 4281546809
-1034.4962 29.752197 34.784485 4281481020
-1035.7314 30.01757 34.319885 4281415992
-1034.3424 30.088354 34.665058 4280825915
-1031.4326 30.181446 34.823456 4281677362
-1029.9023 30.57019 34.89093 4281548076
-1024.1331 30.648434 34.458008 4281415995
-1020.9671 30.962166 34.041008 4281349951
-1019.1921 31.187469 34.616455 4281874490
-1016.5283 31.254358 34.524273 4281546291
-1012.5655 31.34597 34.283936 4282202168
-1063.0635 26.729374 36.330528 4281283629
-1061.2963 26.429661 36.621681 4280497453
-1058.8052 26.827957 36.940025 4281414967
-1056.2273 27.162968 36.444443 4281283899
-1053.7833 27.180574 36.935837 4281153594
-1051.6475 27.419434 37.049316 4281546792
-1052.9008 27.855028 35.918285 4281611576
-1051.1824 27.946436 35.714001 4281677874
-1049.6787 27.754837 36.292675 4281415736
-1046.1969 28.337624 36.022484 4281612089
-1043.5778 28.547836 35.983883 4281677624
-1041.4808 28.970776 35.902924 4281612090
-1038.6467 29.203192 36.262768 4281678137
-1036.2657 29.282509 36.065342 4281415479
-1033.8582 29.357828 36.192802 4281350459
-1031.3024 29.537966 36.28093 4281546550
-1028.7777 29.634724 37.091179 4281283896
-1026.2415 29.680256 37.043026 4281743164
-1023.9365 29.75808 36.808468 4281546294
-1021.4038 29.978531 37.10788 4281349683
-1038.3337 30.093552 36.024841 4282005049
-1033.192 30.276331 36.493855 4281481785
-1031.6517 30.296692 35.791584 4281743928
-1028.6674 30.299908 36.053772 4281611828
-1026.1484 30.3918 36.131691 4281677110
-1023.4695 30.485424 35.742081 4281546298
-1021.3789 30.577257 35.933277 4281611822
-1018.8671 30.778294 36.544174 4281481016
-1016.225 30.922058 36.472832 4281414963
-1013.7412 31.125116 36.404507 4281479731
-1011.2239 31.130295 36.436726 4281809210
-1008.8585 31.323965 36.330521 4281743420
-1006.247 31.574015 36.690285 4282071357
-1003.9457 31.57021 36.237259 4281677884
-1000.993 31.702198 36.620827 4281874494
-999.3656 31.788303 37.101227 4282006578
-996.66309 31.951014 36.803539 4281679166
-993.5957 32.148388 37.459534 4282136635
-991.22662 32.202984 37.313644 4281940025
-986.00348 33.352085 37.124634 4281808704
-1060.1937 -10.667697 39.636292 4280628537
-1059.2928 -11.275131 39.978989 4281218352
-1060.452 -8.5539989 39.679348 4281479728
-1058.675 -8.2073593 39.686417 4281348145
-1056.3024 -8.563138 39.908375 4281217845
-1053.7709 -8.1581583 39.803917 4281151795
-1052.4231 -7.8527451 39.744751 4281282607
-1048.333 -7.6132789 39.905762 4281346855
-1046.7058 -7.6951542 39.917683 4281414196
-1043.5601 -8.0896788 39.934795 4281741624
-1060.5911 -6.4791255 39.499634 4281347637
-1058.7114 -6.3188519 39.420002 4281020722
-1056.2103 -6.2713332 39.67239 4281217076
-1053.7667 -6.4892082 39.754868 4281020721
-1051.4365 -6.0846138 39.689095 4281020461
-1048.486 -6.4638524 39.873997 4281085743
-1046.3018 -6.8051624 39.875172 4281348660
-1043.7283 -6.3133759 39.906952 4281086005
-1041.9062 -6.4825706 39.855198 4281152305
-1039.6979 -6.8261404 39.748581 4281871406
-968.89032 -6.0805283 38.410645 4281348910
-1058.2921 -4.4925318 39.695515 4281412923
-1056.2098 -4.2154627 39.681492 4281020980
-1053.4741 -3.6786609 39.61618 4280889392
-1051.2345 -3.5154262 39.641003 4281151534
-1048.6606 -3.5603113 39.864292 4281151533
-1047.1068 -2.9732819 39.656677 4280693809
-1043.9109 -4.7616701 39.952221 4281020722
-1042.2854 -4.7206039 39.895996 4281676854
-1060.5758 -0.87858301 39.743763 4281151536
-1059.0402 -1.0658864 39.830173 4281413682
-1056.5051 -0.85286522 39.717209 4281086007
-1053.6498 -1.3223836 39.456623 4281216816
-1051.2653 -1.277027 39.26004 4281020463
-1048.7585 -1.1437927 39.494053 4280889647
-1046.2017 -1.265123 39.498131 4281086002
-1043.7673 -1.195333 39.606487 4280889648
-1041.361 -1.1775812 39.696018 4281217587
-1038.7578 -0.84925741 39.677799 4281413684
-1036.3688 -0.64895689 39.615475 4280823859
-1034.0374 -0.57750654 39.575317 4280955447
-1031.1084 -0.80317068 39.89867 4281282869
-1029.0474 -1.3377037 39.750778 4280627243
-1026.199 -0.79886663 39.861675 4281151281
-1024.0942 -0.7833662 39.79195 4281348144
-1022.3583 -0.7974968 39.738098 4281478702
-1060.4421 0.34479269 39.760212 4281216818
-1057.4034 0.51041412 39.564575 4281215784
-1052.9417 0.43984222 39.953472 4280822574
-1051.0144 0.26232317 39.913784 4281282600
-1048.6013 0.66154677 39.831886 4281085735
-1045.8983 1.0997555 39.54612 4281019954
-1044.0026 1.092243 39.689411 4281348657
-1041.7551 1.0018381 39.761391 4281151793
-1038.8695 1.0706291 39.753155 4280824875
-1034.9824 1.5631866 39.657227 4281873463
-1032.2233 0.77536517 39.977581 4281611328
-1028.2274 1.1455643 39.973717 4281216824
-1026.2369 0.72505772 39.914574 4281151531
-1024.652 0.79465866 39.8591 4281412404
-1043.829 3.0365829 39.92804 4281347383
-1041.5519 3.3057718 39.809875 4281610803
-1038.5643 3.457587 39.7402 4281282862
-1035.0212 3.5929413 39.797485 4281610549
-1034.9941 3.0773773 39.991516 4281085996
-1030.9645 4.8700638 39.990051 4281479232
-1061.1412 6.7086306 39.681751 4280954418
-1058.6389 6.9170008 39.621681 4281348147
-1056.2567 6.7964544 39.959568 4281347887
-1054.7987 6.8332772 39.910236 4281479720
-1052.4202 7.228508 39.994385 4281477674
-1035.4253 6.2859421 39.810181 4281742896
-1033.0562 6.3500772 39.728046 4281676344
-1030.9875 5.6606011 39.936028 4281020475
-1028.4355 5.2722573 39.895496 4280626735
-1016.0624 6.7857199 39.660927 4280954928
-1013.7144 6.6471252 39.924927 4281283127
-1011.1954 6.9228468 39.909714 4281217587
-1009.0521 7.0809259 39.750896 4281348405
-1006.0529 7.0628781 39.717484 4281675067
-1003.8104 6.922996 39.734982 4281217582
-1061.0121 8.2995024 39.639652 4281151787
-1058.2479 8.6636248 39.733356 4280889140
-1056.5884 8.6044292 39.924908 4281610546
-1054.8489 8.6971359 39.850769 4281414451
-1032.7305 7.7049942 39.991638 4281215787
-1031.8802 7.5566559 39.965698 4281217842
-1010.022 7.9230042 39.84259 4281282876
-1009.0091 7.9497805 39.776093 4281348660
-1005.8683 7.8891292 39.707958 4281021486
-1003.9309 7.9060273 39.647091 4281283114
-1001.027 8.376668 39.984138 4281283381
-1062.5074 12.26545 38.992432 4281086265
-1061.0387 11.530024 39.513329 4281086253
-1058.6614 11.246502 39.743851 4281347889
-1056.2716 11.544646 39.768745 4281086005
-1053.9102 11.522048 39.799549 4281217327
-1050.8641 11.841257 39.842117 4281217076
-1048.8704 11.858814 39.815651 4280560947
-1046.276 12.292849 39.75016 4281348150
-1044.5726 12.16433 39.764954 4281938491
-1039.3247 12.295812 39.583332 4280692537
-1062.5585 13.797084 38.853821 4280889400
-1061.2028 13.703714 38.965893 4281151537
-1058.7756 13.610657 38.863552 4281151535
-1056.2694 13.728163 39.121841 4280955188
-1053.7404 13.672473 39.337181 4281085742
-1051.2476 13.703341 39.650879 4281085743
-1048.723 13.782737 39.631466 4280954673
-1046.1865 13.80722 39.555195 4281282865
-1043.9807 13.818759 39.567429 4281086258
-1040.4224 14.227304 39.978851 4280627765
-1038.9904 13.722176 39.658104 4281217332
-1036.8087 14.633707 39.913208 4281020722
-1033.7582 14.130482 39.893803 4281152054
-1019.1133 13.355937 39.970371 4280955694
-1016.0016 13.665282 39.866753 4281283380
-1014.0105 13.807868 39.815632 4281414195
-1011.1808 13.477572 39.753502 4280824117
-1002.029 13.522942 39.921265 4281415482
-1062.5242 16.478029 39.779507 4281348145
-1061.1353 15.432781 39.810608 4281217850
-1058.6113 15.964636 39.427864 4280954935
-1056.4866 16.135851 39.401657 4281086255
-1053.6312 15.895436 39.668659 4281151533
-1051.2847 15.642928 39.750542 4280954925
-1048.5736 15.882423 39.613171 4280561203
-1046.3518 16.108503 39.635857 4281152048
-1043.3824 16.963068 39.807728 4281218094
-1042.4674 16.82671 39.878876 4281217585
-1038.7186 16.057535 39.811138 4281086258
-1036.3962 16.370924 39.912716 4281152052
-1033.4739 16.831511 39.828308 4281480243
-1031.2876 17.394089 39.742126 4281545273
-1062.7942 18.811605 39.357334 4280693037
-1061.3741 19.34631 39.692547 4281282866
-1058.6255 18.969872 39.814617 4281020719
-1056.5612 18.813379 39.794624 4281151796
-1054.1854 19.201097 39.839252 4280692530
-1046.0745 17.946035 39.724812 4281152313
-1038.4064 17.724018 39.977966 4280365360
-1036.2343 17.755526 39.853821 4280759352
-1032.8479 18.489664 39.653622 4281283120
-1031.3179 18.20369 39.591888 4281479220
-1006.0848 19.35923 39.541687 4281677359
-1003.2132 18.275703 39.894024 4281347619
-1000.1389 18.948597 39.776989 4280562745
-999.29773 19.252796 39.849464 4280890168
-1062.8928 21.216919 38.857773 4281217326
-1061.2899 21.301214 38.834225 4281283118
-1058.6823 21.245953 39.055088 4281086508
-1056.2234 21.189484 39.089691 4281217335
-1053.8774 21.331812 39.280319 4280955188
-1051.1936 21.396589 39.398937 4280955185
-1048.8303 21.618141 39.346733 4281217070
-1046.3491 22.079014 39.667408 4281218612
-1043.8473 22.085632 39.729591 4281544999
-1041.2357 22.028986 39.667366 4281218357
-1038.6863 22.018936 39.898758 4281021237
-1036.3458 22.199591 39.69191 4281545525
-1034.8022 22.387802 39.758789 4282004544
-1032.0996 22.210026 39.519104 4280628276
-990.22998 21.974211 39.873394 4280694069
-1062.9272 23.79211 38.893681 4281414193
-1061.2172 23.814299 38.870323 4281282868
-1058.6759 23.686703 38.833855 4281414193
-1056.335 23.680452 38.610146 4281283126
-1053.7581 23.702171 38.639427 4281348145
-1051.223 23.702137 38.830746 4281217843
-1048.8127 23.793358 38.90966 4281151795
-1046.2825 23.70393 39.105324 4281087025
-1043.7081 23.686018 39.287113 4281217842
-1041.3127 23.725349 39.263668 4280955702
-1038.7014 23.560589 39.768562 4281086515
-1036.2113 23.670969 39.495251 4281414452
-1034.2003 23.703342 39.660633 4281348913
-1031.1066 24.099554 39.818298 4281413937
-1028.7113 23.842295 39.895668 4281283379
-1026.2449 24.120287 39.896511 4281152049
-1024.4958 23.822159 39.872311 4281480240
-1021.9449 24.038721 39.855228 4281479734
-990.25043 22.763199 39.854141 4281479735
-989.75281 23.275406 39.999084 4281415479
-985.94879 23.844208 39.745186 4281414193
-984.36377 23.920309 39.758869 4281413429
-978.35577 23.991341 39.60516 4281283896
-976.72668 24.133709 39.588284 4281086773
-1062.9152 25.831059 39.248955 4281545521
-1061.2395 25.69071 39.16259 4281348657
-1058.7927 25.860134 38.6926 4281217331
-1056.3196 25.994364 38.637329 4281217590
-1053.7076 26.098398 38.778187 4281348661
-1051.2823 26.351246 38.738209 4281283126
-1048.6808 26.279085 38.946632 4281020720
-1046.132 26.242947 39.195248 4281021232
-1043.7991 26.251524 39.084705 4281414708
-1041.3 26.240793 39.364738 4281151795
-1038.7063 26.258488 39.657246 4281152053
-1036.2781 26.237579 39.679234 4281021239
-1033.6567 26.453131 39.602676 4281283123
-1031.2002 26.153442 39.712772 4281414449
-1027.8838 26.879114 39.989368 4281414457
-1025.8862 26.339527 39.932674 4281217590
-1024.3585 26.288116 39.850266 4281414193
-1021.5692 26.266487 39.810284 4281414709
-1019.4711 26.802052 39.844254 4281807672
-979.32721 25.250441 39.77887 4280693046
-976.29816 25.671881 39.591198 4281611064
-974.49731 25.687191 39.424118 4281218099
-971.37122 25.914221 39.778248 4281414445
-1050.4146 27.501389 37.506714 4281219116
-1046.0627 27.686533 38.249866 4281415215
-1043.521 27.814318 38.205872 4281677112
-1041.2479 27.849623 38.722652 4281611319
-1038.7059 28.109749 38.847874 4281218356
-1036.2263 28.292995 38.878227 4281612346
-1033.6222 28.254498 39.0033 4281545778
-1031.2351 28.303595 39.324795 4281545524
-1028.7717 28.525742 39.508987 4281480245
-1026.2483 28.51243 39.558281 4281414454
-1023.8141 28.834942 39.234467 4281349172
-1021.3622 29.052607 39.264332 4281283639
-1018.9474 29.705256 39.192577 4281218363
-1016.52 29.980398 39.45575 4281152822
-1014.2824 29.583324 39.939293 4281414959
-1007.9108 29.45788 39.965881 4281677369
-1018.6441 30.30452 37.972122 4281350201
-1016.0647 30.28912 38.15387 4281087544
-1013.7223 30.383484 38.658424 4281414959
-1011.3774 30.465406 38.70047 4281677619
-1008.6085 30.640383 38.945492 4281350201
-1006.1437 30.934946 38.852699 4281939254
-1003.994 30.990587 38.716148 4281873980
-1001.1813 31.125427 39.045521 4281415735
-998.71588 31.540186 38.614422 4281808949
-996.2793 31.625732 38.770615 4281677627
-993.78082 31.809195 39.092525 4281677112
-991.25494 31.855268 39.064415 4281481273
-988.79523 32.183537 39.006489 4281612341
-986.45142 32.309673 38.974575 4281940026
-985.81458 33.178589 37.97905 4281612603
-983.30341 32.972488 39.133114 4281808696
-980.86176 33.36795 38.711948 4281808704
-978.70612 33.72337 39.095028 4281874488
-976.17517 33.980518 39.291023 4281874747
-973.81561 34.225487 39.400928 4281677886
-971.28357 34.286655 39.288826 4281874489
-969.61328 34.088844 39.23658 4281808941
-970.97168 35.285831 38.994293 4282006075
-969.78229 35.016998 39.460022 4281546551
-1058.6498 -10.994319 40.232224 4281349682
-1056.2408 -10.525124 40.373589 4281348150
-1053.6616 -10.547057 40.344604 4281020973
-1051.3746 -10.391797 40.531307 4281413938
-1049.5773 -10.418783 40.96209 4281545521
-1043.7915 -10.045631 40.65387 4281349433
-1059.0048 -9.427844 40.035046 4281414194
-1056.1776 -9.0349874 40.25124 4281414201
-1053.7142 -9.0326109 40.172935 4281413680
-1051.1842 -8.7512846 40.330654 4281217332
-1048.8142 -8.778841 40.36253 4281151278
-1046.1737 -8.7308531 40.438919 4281282866
-1043.7976 -8.564146 40.527458 4280955702
-1041.2371 -8.4809694 40.582062 4281413944
-1038.7733 -8.4061127 40.526211 4281348916
-1036.1899 -8.4586372 40.672031 4281348145
-1033.645 -8.3798494 40.696239 4281347635
-1031.2883 -8.3057003 40.888924 4281348915
-1028.8612 -8.2873812 41.404247 4281348909
-1026.2876 -8.1918726 41.75309 4281282861
-1023.7529 -8.1251163 41.695576 4281348396
-1021.3002 -8.1318979 41.810822 4281348409
-1018.6672 -8.1290531 41.815083 4281676597
-1016.2961 -8.0493212 41.892715 4281545010
-1013.7681 -7.9961028 41.729115 4281545272
-1011.2374 -7.9347243 41.615482 4281349175
-1008.8693 -7.950458 41.603813 4281742134
-1006.6431 -7.915596 42.264709 4281479990
-1004.5607 -7.8794351 42.24239 4280891960
-998.75214 -7.830996 40.868763 4281742646
-1060.6692 -5.2644501 40.384521 4281216564
-1059.5759 -5.1518669 40.295227 4281741110
-1054.1771 -5.3875446 40.123295 4280561964
-1051.1077 -6.4669614 40.08762 4280889393
-1048.9132 -5.960865 40.193779 4280889645
-1046.2657 -5.7404885 40.24815 4281479477
-1043.8616 -6.406817 40.248436 4281085491
-1040.8694 -6.1493149 40.418579 4281217332
-1038.6111 -6.0985804 40.61927 4281151790
-1036.2455 -6.2680197 40.639053 4281085748
-1033.6925 -6.1816545 40.778114 4281086514
-1031.287 -6.2881193 40.889503 4280889644
-1028.7645 -6.3031373 41.037872 4281151538
-1026.2406 -6.2684727 41.447773 4280757548
-1023.8002 -6.2622461 41.563648 4280823851
-1021.1997 -6.2527456 41.997364 4281413684
-1018.7311 -6.2985253 41.925102 4281151792
-1016.2851 -6.3156333 41.902641 4281348146
-1013.7573 -6.3088136 41.896809 4281217590
-1011.264 -6.199162 41.957981 4281348663
-1008.4949 -6.2296438 42.055096 4281283381
-1006.0829 -6.1877985 42.226749 4281283635
-1004.4177 -6.1344323 42.104698 4281741361
-1001.3218 -5.2647133 41.746094 4281479990
-998.6358 -6.2531862 41.84687 4281479732
-996.34283 -5.6457582 42.370621 4281217841
-993.61823 -6.220777 41.812168 4281217842
-991.30212 -6.2958097 41.695038 4281283636
-988.77588 -6.1829033 41.688049 4281283126
-986.37244 -5.780591 42.183701 4281020721
-983.61731 -5.73874 41.566845 4281283376
-981.22119 -5.7541161 41.127903 4281479730
-978.80133 -5.7680326 40.919628 4281414706
-976.20233 -5.8019915 41.0536 4281610546
-973.87659 -5.614584 41.361973 4281283126
-971.57263 -5.0819626 41.833687 4281349177
-969.63434 -5.6121039 41.322796 4281611569
-1060.7173 -3.6877093 40.722088 4281085998
-1058.8416 -3.6080406 40.472065 4281413676
-1056.2235 -3.6329753 40.252937 4280889649
-1053.9895 -3.7029867 40.166431 4280954671
-1051.2892 -4.1332073 40.234455 4281151026
-1048.7778 -3.680171 40.557034 4281413680
-1046.2288 -3.7750583 40.648891 4281282607
-1043.745 -3.5789795 40.548939 4281282606
-1041.2075 -3.6601036 40.92041 4281217585
-1038.7816 -3.7259865 40.867584 4281020466
-1036.2366 -3.6749516 41.00967 4281282863
-1033.7731 -3.6254914 41.141834 4281283125
-1031.2792 -3.790607 40.995647 4281414190
-1028.72 -3.7940488 41.091187 4281020209
-1026.2269 -3.7289972 41.251808 4281151529
-1023.7484 -3.7040045 41.462368 4281217327
-1021.196 -3.6547742 41.779232 4281086005
-1018.7566 -3.8245161 41.647373 4281217072
-1016.2292 -3.7686205 41.955074 4281348146
-1013.7335 -3.743886 42.06562 4281020978
-1011.3146 -3.8113055 42.140881 4281283124
-1008.9594 -4.16996 42.367954 4281152052
-1006.9036 -4.0432053 42.379498 4281742137
-1004.3708 -4.4908142 42.065308 4281217584
-1001.3308 -4.9264145 41.733856 4281676340
-998.49707 -4.0078444 42.260273 4281479474
-995.82184 -3.8255761 42.114338 4281217327
-993.59625 -4.7867088 42.019272 4281546039
-991.06519 -4.6937823 41.869884 4281283121
-988.7019 -4.5156894 42.062504 4281283380
-986.29645 -4.5791178 42.238384 4280561966
-983.591 -4.3148665 41.94722 4281021235
-981.25269 -4.3688841 41.396282 4281282350
-978.62384 -4.3855753 41.412983 4281348148
-975.89795 -4.3555045 41.775959 4281675819
-973.76361 -3.7034459 41.992573 4281283118
-971.22491 -3.7209971 42.051228 4281348914
-968.78253 -3.7712083 41.948742 4281282610
-966.95074 -3.6022139 41.93058 4281020979
-1060.9017 -1.6833674 40.329742 4280889136
-1058.6329 -1.3997618 40.24823 4281348403
-1056.2666 -1.4049082 40.191681 4281151793
-1054.339 -1.2770787 40.104176 4281085744
-1047.9338 -2.4918976 40.042175 4281086514
-1046.7445 -2.4625397 40.047871 4281282868
-1044.1969 -2.4003487 40.053131 4280627749
-1040.4972 -2.0291035 40.400738 4280889644
-1038.6641 -1.9439645 40.315971 4280430897
-1036.1412 -1.796697 40.3181 4281282354
-1033.6384 -1.5379812 40.339211 4281217327
-1031.3167 -2.0855694 40.431976 4281216817
-1028.7208 -1.2651162 40.550091 4280954926
-1026.3225 -1.9739678 40.721512 4281347890
-1023.4137 -1.4719305 40.752159 4281217070
-1021.1741 -1.2438414 40.831566 4281151786
-1018.7626 -1.2410941 41.17028 4281282609
-1016.2304 -1.2562163 41.223045 4281217328
-1013.7644 -1.3288461 41.320484 4281348403
-1011.262 -1.3772105 41.360004 4281152047
-1008.7276 -1.3061539 41.437431 4281086258
-1006.3055 -1.08701 41.414036 4281217584
-1003.7812 -1.0637413 41.347431 4281151794
-1001.3234 -1.0049744 41.235752 4281020724
-998.68231 -0.93767494 41.83728 4281020723
-996.19586 -0.91174114 41.925774 4281348657
-993.89087 -0.69084215 42.052326 4281151532
-991.21936 -1.0162927 41.824924 4281086257
-988.76941 -1.0102566 41.698223 4281414193
-986.26031 -0.89520872 41.822521 4281086767
-983.69568 -0.84926623 41.514355 4281151281
-981.32593 -0.67976564 41.959259 4281479219
-978.64307 -0.88437259 42.176487 4281283380
-976.05511 -1.0403906 41.981064 4281152045
-973.74603 -1.2401949 42.160423 4281152054
-971.16217 -1.3223127 42.115059 4281348660
-968.85168 -1.468923 42.189205 4281217589
-966.88965 -1.3968194 42.060623 4281151539
-1060.912 1.4817349 41.122791 4281085746
-1058.7482 1.403967 41.025776 4281086255
-1056.2114 1.2075509 41.020355 4281217076
-1053.7749 1.2620996 40.831249 4281085739
-1051.2396 1.4982475 40.791649 4281152304
-1048.8295 1.8487085 40.417278 4281085746
-1046.6771 1.8010583 40.552307 4281281848
-1043.2277 1.6435394 40.463276 4281348656
-1040.8812 1.3938627 40.307457 4281151537
-1038.6758 1.2754298 40.21579 4281086255
-1036.2972 1.349975 40.164562 4281217329
-1033.6841 1.337952 40.199924 4281348400
-1031.1177 1.2580285 40.355854 4281348146
-1028.887 1.1989247 40.300159 4280627251
-1026.295 1.5307177 40.424862 4280955178
-1023.6073 1.414867 40.674946 4280889389
-1021.3138 1.1919279 41.013111 4281151283
-1018.7863 1.2549313 40.806133 4281152048
-1016.2501 1.3240814 40.757294 4281086512
-1013.801 1.2038625 41.063896 4281151534
-1011.2649 1.1428992 41.298679 4281348402
-1008.7693 1.2650859 41.405003 4281217326
-1006.2304 1.3396214 41.491108 4281282868
-1003.6995 1.403178 41.401924 4281085999
-1001.3264 1.2338489 41.259747 4281152052
-998.89392 1.1440761 41.716557 4280824375
-996.31714 1.1053671 41.811581 4281217079
-993.68164 1.16936 41.948277 4281348147
-991.17755 1.1363134 41.767796 4281086259
-988.85974 1.0880038 41.694027 4281282869
-986.28394 1.0711393 41.782551 4281151793
-983.73602 1.1593075 41.685959 4281151538
-981.2511 1.1886578 42.139576 4281348139
-978.65967 1.1199313 42.18222 4281348654
-976.44305 1.1946502 41.984818 4281217071
-973.70685 1.1755437 42.251522 4281348401
-971.36511 0.95433426 42.04084 4281283124
-968.68524 0.7874915 42.110275 4281085740
-966.88831 1.1738645 41.953438 4281217582
-1060.9307 3.9808016 40.986744 4281150769
-1058.6991 3.7692938 41.289536 4281348140
-1056.2501 3.757992 41.207069 4281347889
-1053.7015 3.7636423 41.317413 4281151535
-1051.1869 3.7400134 41.3876 4281217329
-1048.8129 3.8119113 41.388325 4281216817
-1046.2979 3.8686218 41.309891 4280823601
-1043.6718 3.753407 41.084568 4281348141
-1041.1909 3.8500576 40.577507 4281282865
-1038.7716 3.7485039 40.542469 4281217078
-1036.3223 3.7525129 40.602585 4281283118
-1033.6913 3.8870678 40.908447 4281151794
-1031.2173 3.788307 40.753376 4281282608
-1028.7603 3.7993574 40.440971 4280693042
-1026.2538 3.7779884 40.646122 4281085743
-1023.7231 3.7709429 40.893127 4281086002
-1021.2308 3.7535501 40.93824 4281413937
-1018.7172 3.7549767 40.879517 4281086257
-1016.306 3.6886466 40.805523 4281020977
-1013.7482 3.7285945 41.061367 4281086258
-1011.1961 3.7581906 41.479156 4281283124
-1008.8216 3.8336525 41.532665 4281086258
-1006.2326 3.769526 41.829411 4280955444
-1003.7399 3.8049853 41.899948 4281020472
-1001.1188 3.2712886 41.932827 4281348148
-999.42694 3.5485401 41.857147 4281021230
-996.24396 3.6677585 42.288216 4281282864
-994.03027 3.8221762 42.373413 4281217333
-991.41516 3.4708714 42.349018 4281282870
-989.10217 3.1610918 42.161533 4281217337
-986.45648 3.1533551 42.190945 4281216817
-983.3009 3.7880516 42.469292 4281282350
-973.26886 2.957283 42.454529 4281086257
-971.82288 3.0627365 42.402588 4281676335
-968.48297 3.463418 42.213276 4281676072
-967.06549 3.1182365 42.142113 4281348403
-1060.8981 5.5130219 40.295616 4280625724
-1058.8182 5.9304152 40.390533 4281020467
-1056.2072 5.6598887 40.4702 4281282610
-1053.645 6.2442646 40.463932 4281085745
-1051.3022 6.2003493 40.582947 4281216820
-1048.8275 6.3274918 40.66658 4280823602
-1046.2559 6.1914005 40.826321 4281217331
-1043.8435 6.2024603 40.808529 4281413937
-1041.2683 6.2948508 40.779873 4281020214
-1038.7191 6.2292037 40.668041 4281085493
-1036.3046 6.3303084 40.654999 4281217332
-1033.8409 6.2923908 40.662907 4281217078
-1031.3885 6.3492899 40.383827 4281086002
-1028.8145 6.3918495 40.317429 4281020464
-1026.1819 6.2793698 40.411839 4281086255
-1023.8311 6.28614 40.582775 4280954928
-1021.2806 6.2715201 40.822906 4281086002
-1018.7336 6.3018579 40.582317 4281151533
-1016.253 6.1343093 40.369602 4281086002
-1013.6741 6.2635303 40.530903 4281086260
-1011.3281 6.1021047 40.425453 4281152051
-1008.6188 5.9734163 40.65514 4281217588
-1006.2891 6.0974445 40.823631 4281283120
-1003.7482 6.1836605 40.922279 4281020974
-1001.2217 6.1642556 41.172127 4281086007
-998.84589 6.51582 41.045139 4280824628
-996.17609 6.4243045 41.397018 4281282864
-993.72125 6.2868104 41.66798 4281151796
-991.36249 6.4135194 41.648548 4281283122
-988.82233 6.4645996 41.71666 4281217331
-986.26318 6.4172735 41.721264 4281086258
-983.71313 6.406208 41.779255 4281217588
-981.25836 6.84516 41.736946 4281216560
-978.7879 7.1190839 41.410114 4281413682
-976.48938 6.6535473 41.966095 4281217590
-973.6908 6.5798721 41.964836 4281217845
-971.00287 7.0172887 41.900814 4281152309
-968.97028 6.9268517 42.180233 4281478962
-967.37988 7.1295662 42.209503 4281741364
-1061.321 9.2687054 40.069542 4280823345
-1059.1362 8.8601789 40.369392 4281282869
-1056.1105 8.7463827 40.47213 4281217074
-1053.7351 8.7041883 40.60878 4280889391
-1051.2067 8.7641916 40.644558 4281020207
-1048.6514 8.8024893 40.520985 4280823855
-1046.2472 8.7309837 40.827625 4281151537
-1043.7365 8.7727213 40.743931 4281348396
-1041.1748 8.8251886 41.112926 4281086001
-1038.7677 8.7920027 41.26136 4281019950
-1036.2244 8.9061956 41.342388 4280888878
-1033.7289 8.8239594 41.149632 4281217328
-1031.2887 8.6985197 40.834415 4281282869
-1028.7704 8.7436886 40.901417 4281085998
-1026.2676 8.7944517 40.644356 4280955184
-1023.7966 8.8950119 40.752823 4281020467
-1021.2515 8.7289963 41.322716 4281085999
-1018.7883 8.6932859 41.02232 4281217842
-1016.2438 8.8078594 41.118439 4281348145
-1013.7164 8.9080048 41.416607 4281217837
-1011.1405 8.7961187 41.061886 4281152050
-1008.4791 9.0576305 41.098335 4281086513
-1006.3815 8.992774 41.035545 4281348912
-1003.6967 8.9943857 40.828934 4281020721
-1001.2358 8.9377813 40.848381 4281151795
-998.74774 8.8089828 40.950897 4281217326
-996.27344 8.6369896 40.755512 4281413937
-993.7597 8.7561207 40.843044 4281348401
-991.18652 8.755125 40.783497 4281151795
-988.65222 8.7528009 40.841236 4281282866
-986.32715 8.7997456 41.097912 4281282864
-983.76166 8.7457571 41.333038 4281348407
-981.25348 8.794817 41.235771 4281676083
-978.72229 8.8707352 41.386036 4281217329
-976.19611 8.6995211 41.045734 4281479731
-973.76318 8.7822304 41.053913 4281283124
-971.29169 8.7493925 41.428154 4281217584
-968.71515 8.6122398 41.978298 4281414191
-967.42072 8.7334585 41.954308 4281152053
-1061.484 10.708783 40.050678 4280627244
-1059.7969 10.433041 40.092701 4281283633
-1056.1643 10.759904 40.188622 4281414199
-1053.5944 10.532615 40.450329 4280954159
-1051.3994 10.946396 40.449951 4281413423
-1048.6942 10.953271 40.403412 4280954667
-1046.2292 11.116427 40.552399 4281413681
-1043.6434 11.222008 40.600052 4281413684
-1041.2301 11.262149 40.678654 4281151540
-1038.7207 11.285007 40.653767 4281020723
-1036.2172 11.279613 41.021881 4281348659
-1033.7325 11.198382 40.946079 4281283121
-1031.2808 11.280445 41.256908 4281479728
-1028.7573 11.251431 41.148914 4281217069
-1026.3239 11.344092 40.743416 4280758316
-1023.7742 11.346007 40.868149 4280823598
-1021.2001 11.30313 41.078663 4281348397
-1018.7646 11.2745 40.972935 4281151792
-1016.2772 11.181042 40.924694 4280955441
-1013.7555 11.158416 40.924854 4281283120
-1011.2823 11.171696 40.934826 4281282607
-1008.7031 11.257298 41.166164 4281545266
-1006.3302 11.254707 41.137726 4281349172
-1003.7732 11.279288 41.082821 4281151537
-1001.2341 11.316971 41.651615 4280890163
-998.71271 11.262073 41.225857 4281085997
-996.16998 11.248569 41.478436 4281152054
-993.84637 11.246773 41.370132 4281151791
-991.27783 11.208863 41.190083 4281085997
-988.75897 11.322052 41.597237 4281413422
-986.19293 11.314712 41.074631 4281217329
-983.70599 11.256128 41.072365 4281348653
-981.31854 11.354584 41.258205 4281151533
-978.78308 11.28021 41.464603 4281217331
-976.24786 11.328674 41.417675 4281348140
-973.74963 11.335069 41.103207 4281086515
-971.20209 11.333014 41.8787 4281283383
-968.72797 11.335247 41.907619 4281086519
-967.47717 10.924365 41.919605 4280496943
-1043.0126 13.347589 40.110825 4281020721
-1041.5775 13.609535 40.082615 4280955185
-1038.3505 13.76872 40.057842 4281152051
-1036.1177 13.595049 40.324448 4281413942
-1033.7998 13.669187 40.391819 4281086516
-1031.2526 13.72335 40.485912 4281282355
-1028.77 13.768729 40.533844 4281151534
-1026.2126 13.92776 40.824547 4281282863
-1023.7463 13.716988 40.421284 4281282610
-1021.3124 13.648996 40.493229 4281217330
-1018.7253 13.72737 40.251106 4280955695
-1016.5323 13.614999 40.258064 4280824371
-1013.2822 13.422382 40.353493 4281348659
-1011.2014 13.76323 40.459679 4281348406
-1008.7749 13.676859 40.62764 4281414450
-1006.1939 13.679234 40.621494 4281021237
-1003.6779 13.796565 40.726601 4281086255
-1001.3126 13.563839 40.647194 4281217847
-998.78656 13.652474 40.8092 4281348914
-996.25201 13.733953 40.842808 4281217589
-993.70935 13.77939 40.941647 4281282864
-991.25531 13.612658 41.084778 4281282863
-988.80646 13.663764 41.2155 4281151538
-986.27698 13.715283 41.101452 4281283122
-983.76617 13.757539 41.12051 4281413935
-981.21344 13.647173 41.143833 4281151794
-978.68744 13.500031 41.327866 4280889902
-976.26978 13.677472 41.565002 4281479472
-973.80865 13.709845 41.343655 4281152050
-971.24561 13.536535 41.171627 4281283381
-968.72571 13.612519 41.638588 4281217585
-1061.1361 16.505186 40.215393 4281217075
-1059.2507 16.815237 40.02887 4281216561
-1055.4309 16.844919 40.434475 4281216561
-1053.7771 16.86475 40.244499 4281151277
-1051.249 16.408165 40.33112 4280627503
-1048.9889 16.674452 40.296345 4281020463
-1046.005 16.481451 40.203163 4281348399
-1043.8269 16.287104 40.17046 4281152302
-1041.1791 16.23632 40.184486 4281086258
-1038.6879 16.200665 40.24593 4281085743
-1036.1392 16.099493 40.376869 4280890164
-1033.7286 16.20649 40.433006 4281217587
-1031.1702 16.283514 40.575676 4281152049
-1028.8335 16.232637 40.786331 4280758319
-1026.2679 16.291286 40.86356 4281086768
-1023.6951 16.254725 40.740826 4281151535
-1021.3635 16.244963 40.711697 4281283118
-1018.8227 16.268911 41.189178 4281217335
-1016.2574 16.283258 41.210114 4280955700
-1013.7365 16.323847 40.886681 4281348661
-1011.1879 16.294964 40.6595 4281348915
-1008.7941 16.247139 40.587677 4281217843
-1006.2786 16.225004 40.799667 4281676084
-1003.7839 16.318411 40.985168 4281020462
-1001.2257 16.216827 41.123692 4281282868
-998.68396 16.231178 41.480434 4281479733
-996.32819 16.280159 41.473309 4281086257
-993.76434 16.219572 41.385017 4281217331
-991.20398 16.196856 41.198887 4281151791
-988.7381 16.275961 41.392338 4281086773
-986.21057 16.304398 41.629326 4281086519
-983.90778 16.25819 42.123795 4281217844
-981.09113 16.416864 41.982708 4281151792
-978.9718 16.369854 42.08498 4281217847
-976.03015 16.27924 42.231426 4281086772
-974.07562 16.396389 42.265175 4280693556
-971.50336 15.306211 42.377983 4281479988
-968.96674 15.860038 42.243553 4281217583
-1060.9633 18.106823 40.060604 4281086000
-1059.5427 17.997189 40.014496 4281020981
-1055.3666 18.368811 40.395672 4281282354
-1053.4939 18.551924 40.353943 4280954929
-1051.2991 18.755381 40.398659 4280889646
-1048.7902 18.755058 40.437096 4281151790
-1046.2266 18.799469 40.436272 4281217074
-1043.824 18.761427 40.455486 4281348913
-1041.2512 18.807299 40.548737 4281283121
-1038.7202 18.718218 40.610497 4281217073
-1036.3678 18.818356 40.671513 4281479217
-1034.0732 18.791475 40.721451 4281283373
-1031.2847 18.73366 40.483059 4281020977
-1028.7598 18.673626 40.589264 4281086259
-1026.1931 18.663919 40.718925 4281414450
-1023.7925 18.712688 40.764515 4281020722
-1021.2675 18.785732 40.526844 4281348914
-1018.6883 18.755407 40.977348 4281414451
-1016.2564 18.773512 41.307289 4281020723
-1013.7676 18.767754 40.962307 4281217838
-1011.2551 18.755894 40.958443 4281479733
-1008.7305 18.757206 40.666912 4281348915
-1006.1742 18.783348 40.802128 4281283125
-1003.8567 18.81695 40.639557 4281348657
-1001.373 18.764845 40.554867 4281152052
-998.69977 18.710924 40.776829 4281217846
-996.2287 18.789621 40.824123 4280955185
-993.7348 18.705893 41.097069 4281348659
-991.3382 18.768393 40.92448 4281020721
-988.76837 18.728159 41.100166 4281152304
-986.23206 18.815954 41.411888 4281348911
-983.77039 18.790186 41.562439 4281348660
-981.2179 18.633209 41.40205 4281414448
-978.80493 18.752565 41.533421 4281217586
-976.27673 18.800295 41.530884 4281348655
-973.83099 18.770281 41.593723 4281479732
-971.20038 18.818342 42.157429 4281283639
-968.91327 18.780876 41.970631 4281283384
-1052.8916 20.589989 40.186371 4281414191
-1051.3684 20.627615 40.133461 4280365356
-1048.475 20.607946 40.286182 4281021229
-1046.2556 20.737446 40.368179 4281414447
-1043.7458 20.815987 40.319004 4281086772
-1041.2355 20.783384 40.385536 4281413940
-1038.8125 20.780857 40.580223 4280955185
-1036.2416 21.001589 40.759068 4281217587
-1033.7313 21.234982 40.820072 4281348147
-1031.2091 21.309479 41.099854 4281217329
-1028.7302 21.283506 41.043152 4281020468
-1026.2125 21.239138 41.34856 4281414709
-1023.7585 21.373001 41.258358 4281151792
-1021.2743 21.212664 41.118793 4280889902
-1018.7549 21.256798 41.111946 4281413938
-1016.2192 21.26952 41.436874 4281152052
-1013.6802 21.369631 41.396713 4281283375
-1011.2927 21.186363 41.44521 4281152306
-1008.7758 21.202562 41.017403 4281152308
-1006.2349 21.285984 41.168465 4280955442
-1003.7758 21.227268 41.627979 4281283123
-1001.2529 21.387091 41.410362 4281348658
-998.75562 21.297049 40.674171 4281152307
-996.30817 21.241531 40.795139 4281152310
-993.73224 21.28093 41.062096 4281283376
-991.34021 21.237976 41.022701 4281217840
-988.72327 21.237005 41.382763 4281348658
-986.3042 21.319677 41.294315 4281283123
-983.72595 21.256124 41.539051 4281545523
-981.22864 21.209303 41.56197 4281217579
-978.76007 21.276825 41.44231 4281217584
-976.22058 21.137445 41.595364 4281414704
-973.79553 21.204113 41.693886 4281348403
-971.28119 21.237333 41.829014 4281020467
-969.06555 21.308388 41.719421 4281479478
-1039.1023 24.803148 40.216949 4280824110
-1033.5752 23.787716 40.085804 4281414194
-1031.568 23.267555 40.079254 4281151532
-1028.6152 23.532707 40.083565 4281348664
-1026.35 22.952 40.198879 4280693297
-1023.2177 23.713171 40.399776 4281414704
-1020.9031 23.592264 40.685089 4281283119
-1018.7546 23.80644 40.630714 4281479730
-1016.2348 23.753222 40.799717 4281283381
-1013.7225 23.733345 41.057018 4281152052
-1011.2274 23.659512 40.939705 4281545783
-1008.7032 23.677206 40.764481 4281218101
-1006.3395 23.742762 40.884529 4281348662
-1003.7274 23.669891 41.436531 4281217842
-1001.1833 23.694258 41.430916 4281349170
-998.745 23.821909 40.861107 4281283122
-996.17566 23.740217 40.726765 4281414455
-993.82013 23.797209 40.832954 4281283641
-991.35291 23.779888 40.503883 4281283124
-988.70697 23.759184 40.786694 4281414703
-986.3382 23.766897 40.737774 4281152049
-983.58112 23.516939 40.779343 4281217587
-981.30518 23.815292 40.804131 4281283377
-979.25787 23.373634 40.525497 4281414197
-976.1189 23.484535 40.71603 4281349174
-973.72687 23.701235 40.803169 4281086773
-971.20215 23.727568 40.745758 4281152052
-969.15662 23.80723 40.85025 4281086771
-1035.2268 26.760422 40.043579 4281085734
-1034.121 25.491266 40.049702 4281217333
-1030.3174 27.211384 40.06485 4282069558
-1028.8933 26.147907 40.039165 4281479733
-1026.7437 26.361635 40.419968 4281021743
-1023.1523 26.186983 40.388702 4281151795
-1021.162 26.209503 40.45525 4281348912
-1018.6985 26.240286 40.360287 4281283637
-1016.1813 26.314749 40.561565 4281348661
-1013.7953 26.257048 40.781891 4281480246
-1011.2637 26.297764 40.767517 4281480501
-1008.7399 26.249113 40.84798 4281611319
-1006.2394 26.308258 40.975906 4281414966
-1003.727 26.259399 41.258099 4281348661
-1001.3172 26.275608 41.446659 4281283637
-998.74841 26.233015 41.313293 4281217845
-996.21881 26.276161 41.212448 4281283127
-993.73511 26.356977 41.295868 4281348920
-991.24969 26.135239 41.3493 4281480243
-988.7796 26.254383 41.92271 4281152309
-986.22363 26.286182 41.880131 4281217584
-983.67609 26.271038 41.893639 4281086512
-981.21576 26.435175 41.510014 4281283124
-978.7085 26.358931 40.918457 4280955698
-976.28131 26.24786 40.722412 4281479990
-973.43213 26.476835 41.045597 4281283892
-971.23029 26.325434 40.65226 4281283127
-969.39014 26.330488 40.658333 4281742392
-1037.6261 27.743416 40.042725 4280628536
-1036.5242 27.773983 40.04071 4281415481
-1029.3118 27.574398 40.022675 4281479219
-1026.7664 27.629265 40.073547 4280956733
-1023.1972 27.873587 40.329731 4281282101
-1021.0555 28.155502 40.277443 4281545528
-1018.6709 28.541725 40.404575 4281217846
-1016.27 28.716089 40.390656 4281283640
-1013.6318 28.627506 40.587444 4281480246
-1011.2182 28.834402 40.452347 4281676854
-1008.8297 28.746012 40.514999 4281742649
-1006.2533 28.746271 40.779617 4281414456
-1003.7278 28.771132 40.890591 4281283376
-1001.2422 28.822311 41.1637 4281349174
-998.75812 28.708372 41.136787 4281479989
-996.30804 28.729622 41.154655 4281414451
-993.7345 28.80191 41.747536 4281480501
-991.19531 28.754629 41.771313 4281545780
-988.76355 28.829439 41.874722 4281348915
-986.28888 28.725344 41.894058 4281152307
-983.73334 28.754087 41.857536 4281349173
-981.34955 28.865072 41.930759 4281414709
-978.67725 28.723196 41.858501 4281479730
-976.27588 28.744371 41.966595 4281283636
-973.70874 28.769121 42.185982 4281348914
-971.30713 28.796425 42.117371 4281217846
-969.45312 28.744862 41.539906 4281348660
-1013.2761 30.125031 40.008911 4281546040
-1010.5671 30.202904 40.041119 4281874221
-1008.9866 30.249933 40.08028 4281350196
-1006.1296 30.299601 40.343269 4281612087
-1003.9421 30.258574 40.350315 4281807410
-1001.0474 30.430662 40.785339 4281546288
-998.70245 30.612339 40.913418 4281480499
-996.17975 30.662973 40.961964 4281153080
-993.76721 30.763222 41.248264 4281414967
-991.27008 30.839777 41.118595 4281611831
-988.7016 31.030876 40.963783 4281546040
-986.1485 31.089409 40.968452 4281414707
-983.76465 31.256632 41.031296 4281546295
-981.2406 31.265739 41.371132 4281480756
-978.81763 31.261177 41.680157 4281349176
-976.2572 31.222464 41.667038 4281546292
-973.71802 31.284042 41.731998 4281414707
-971.19238 31.46314 41.871777 4281218097
-969.39001 31.126978 41.491421 4281152561
-978.32581 32.696629 40.794548 4281742652
-976.23383 32.786213 40.812317 4281677622
-973.77802 33.00695 40.967922 4281283899
-971.1524 33.014221 41.311676 4281414964
-969.47809 32.983593 41.242043 4281480757
-1009.8237 -7.7084732 43.03186 4282069824
-1005.7158 -7.7008667 43.017414 4281676601
-1003.8384 -7.6378632 42.85788 4281480756
-1002.0598 -7.8351212 42.881878 4281282361
-1009.8605 -6.367763 42.958672 4281218359
-1006.3646 -6.4188948 42.88084 4281611319
-1003.4341 -6.3785496 42.95932 4281348402
-1001.2519 -6.3222713 42.926678 4281283635
-998.82025 -6.2011304 42.643627 4281414451
-996.12177 -6.7630682 42.807308 4281479991
-994.7915 -7.0185089 42.822166 4281349432
-985.90509 -6.3659248 42.689423 4281282869
-984.67755 -5.987246 42.719036 4281086760
-1013.319 -3.1925831 42.930298 4280693046
-1011.285 -3.6723316 42.82803 4281413681
-1008.7527 -3.5347629 42.78944 4281152306
-1006.225 -3.6573842 42.841282 4281413938
-1003.7288 -3.7167063 42.773197 4280889903
-1001.2547 -3.7402637 42.727844 4281020722
-998.87128 -3.614408 42.78614 4281021232
-996.91876 -3.4263206 42.818405 4281348144
-993.71594 -3.4649208 43.156841 4281283122
-991.30969 -3.3526249 43.091728 4281414450
-988.65289 -3.3137619 42.965504 4281348144
-986.3175 -3.3491433 42.754089 4280889392
-983.93121 -3.3742142 42.995106 4280824372
-981.25391 -3.0762432 43.73563 4281151795
-978.73334 -3.01806 43.443157 4281151795
-976.42157 -3.2781441 42.977943 4281282604
-1005.6367 -2.2698848 42.765594 4281611055
-1003.5786 -2.2991207 42.741993 4281610037
-1001.1932 -2.2166317 42.734283 4281152052
-998.9165 -1.9337553 42.737633 4280955701
-996.2865 -1.9283218 42.687664 4281545267
-993.85321 -1.9504434 42.814991 4281152050
-991.30322 -2.1459713 42.958233 4281479469
-988.68243 -2.1706853 42.911247 4281479729
-986.21973 -2.0554647 42.737625 4281020726
-983.72223 -2.1286268 43.105759 4281151793
-981.29462 -1.7393361 43.256149 4281413937
-978.92444 -1.7354556 43.279072 4281283120
-976.70746 -1.7303748 42.779713 4281217584
-972.23145 -0.66325378 42.716522 4281217838
-968.53137 -0.48239359 42.727654 4281020726
-967.01428 -0.53094292 42.535828 4280889905
-997.97424 2.1231363 42.754124 4280693548
-996.03162 2.0718954 42.693008 4281544761
-988.31104 2.4691944 43.175461 4280693047
-986.15131 1.7943325 42.864388 4281152044
-983.67993 2.1781788 42.558014 4281610545
-980.70898 1.6165237 43.07196 4281151274
-978.81995 1.6230125 42.532707 4281282589
-975.62189 1.540522 42.897602 4281086258
-973.94983 1.6385574 42.907894 4281217329
-971.03387 1.8902531 42.852001 4281479219
-968.83362 1.9151647 42.689526 4281283120
-1001.2903 4.3772092 42.547878 4281151286
-998.25897 3.8239248 42.908638 4281218091
-996.28723 3.816484 42.823776 4281151797
-993.05756 3.4721394 42.793903 4281217334
-991.03503 4.0511103 42.71854 4281152052
-988.6402 3.9203267 43.000397 4281414198
-986.14221 3.7828226 42.993229 4281282865
-983.93939 3.7855182 42.979401 4281217588
-981.30554 3.7390087 43.004726 4281479222
-978.7403 3.7003865 43.13232 4280955445
-976.21667 3.7769094 43.108868 4281283380
-973.74121 3.9791358 43.280472 4281348658
-971.21527 3.8041661 43.475201 4281414187
-968.80084 3.817193 43.051258 4281414193
-967.19409 4.2312493 42.766785 4281152316
-998.34521 5.270215 42.675476 4281545776
-996.74158 5.2662172 42.695656 4281545254
-991.09119 5.2771263 42.678894 4280823343
-988.55725 5.2408304 42.834148 4281348398
-986.13281 5.1972475 42.62545 4281283123
-983.89282 5.282547 42.966541 4281217848
-981.06818 5.5427303 42.817635 4281086257
-978.7652 5.7536058 43.077061 4281413941
-976.04736 5.7805328 43.058014 4281217591
-973.91565 5.5376244 42.839798 4281283124
-971.37354 5.8692045 43.06168 4281545525
-968.5777 5.9396701 42.768459 4281347890
-967.19336 5.7835217 42.732872 4281086517
-968.95355 9.3565054 42.568848 4280954931
-971.01318 10.876325 42.607586 4281544759
-969.26147 10.415268 42.557415 4281545013
-981.05035 14.784233 42.672668 4280431662
-978.86243 14.83872 42.596985 4280693047
-977.01117 14.884819 42.532959 4281741102
-973.41986 14.969124 42.605206 4281347891
-982.76801 16.14127 42.80019 4281021235
-981.45099 15.984512 42.720387 4281151794
-978.52747 16.248386 42.646843 4281545013
-976.50537 16.537319 42.621239 4281020726
-973.39032 16.263613 42.730446 4281217334
-971.23419 16.487625 42.727081 4281414449
-968.7124 16.40115 42.650066 4281086514
-972.71686 18.186449 42.583786 4281022010
-971.13623 17.830732 42.606525 4281283384
-989.27985 20.151436 42.506348 4281086769
-972.79041 21.045715 42.596619 4281087289
-972.45392 21.054169 42.584961 4281022256
-984.27008 28.683424 42.605774 4281808676
-980.64813 28.682377 42.615791 4281349175
-978.97046 28.89456 42.506485 4281741871
-975.01318 28.903217 42.509979 4281873208
-974.67236 28.743256 42.501709 4282134589
-971.48639 30.556547 42.722786 4281349427
