# .PCD v0.7 - Point Cloud Data file format
VERSION 0.7
FIELDS x y z rgba
SIZE 4 4 4 4
TYPE F F F U
COUNT 1 1 1 1
WIDTH 1120
HEIGHT 1
VIEWPOINT 0 0 0 1 0 0 0
POINTS 1120
DATA ascii
-1036.6208 -43.896111 26.048567 4279244300
-1036.3129 -41.276604 27.03826 4278391313
-1036.0289 -38.876846 26.355042 4278193435
-1035.7089 -36.394882 25.29653 4278913796
-1035.4189 -33.699635 26.961103 4279176448
-1035.1555 -30.728573 26.837875 4279178507
-1034.8718 -28.138245 26.862692 4279372544
-1034.7366 -26.341604 25.95104 4278652423
-1034.4832 -23.658485 26.596487 4279636993
-1034.1327 -20.936882 26.402176 4279044352
-1034.1047 -18.710318 26.345602 4278913794
-1033.7806 -16.291828 26.86854 4279572236
-1034.05 -13.934328 26.325142 4279440400
-1034.5698 -11.928314 26.955811 4279504640
-1043.1515 -108.9016 28.297159 4278850309
-1042.7919 -106.34255 29.189981 4278717696
-1042.4465 -103.73256 29.932739 4280489985
-1042.1716 -100.61487 29.998962 4278523920
-1042.0029 -98.54583 28.509449 4278455299
-1041.7845 -96.223923 29.310266 4279111938
-1041.4071 -93.800659 29.342573 4278916368
-1041.1969 -91.481552 28.993059 4279177491
-1041.0071 -88.850746 29.012125 4279373576
-1040.8429 -86.267319 28.842886 4278914319
-1040.5797 -83.469078 29.271816 4279309058
-1040.2747 -81.129814 28.876186 4279440145
-1040.0299 -79.060852 28.872425 4279110920
-1039.8619 -77.823273 28.479147 4278978327
-1039.6998 -75.97097 29.610575 4279112461
-1039.5662 -73.744568 28.7379 4279634954
-1039.3228 -71.321503 28.209229 4279637007
-1039.1548 -68.798462 28.557108 4278455307
-1039.0356 -66.780762 27.788427 4279045382
-1037.9531 -55.689453 28.523468 4279570436
-1037.6078 -53.599632 28.082825 4279174658
-1037.5616 -52.036716 29.157328 4278784000
-1037.3203 -50.961403 28.169128 4279899648
-1037.2214 -48.447632 29.485016 4279177994
-1036.8638 -46.274189 28.610758 4279502848
-1036.7628 -43.787773 28.720652 4278916363
-1036.5269 -41.40126 28.959839 4278261507
-1036.1392 -38.629341 28.007359 4278980116
-1035.7639 -36.110622 28.785069 4279174656
-1035.6228 -33.719208 28.821499 4278652160
-1035.418 -31.400122 28.861893 4278980619
-1035.2516 -28.970852 29.572128 4279964160
-1035.0262 -27.059576 29.759806 4278981888
-1034.7961 -25.803904 28.644445 4279112455
-1034.6439 -23.627445 29.41925 4280160514
-1034.3468 -21.155949 28.269924 4279699968
-1034.2682 -18.704082 28.813986 4279176194
-1033.8977 -16.362759 28.779419 4279375634
-1034.0087 -14.379621 29.098532 4278916865
-1034.4604 -12.254112 28.334167 4279047680
-1043.233 -108.81351 31.375244 4278719232
-1043.0297 -106.52151 31.049459 4279045120
-1042.214 -101.0043 30.74003 4279703316
-1042.1339 -98.80574 30.958801 4279375105
-1041.9724 -96.132599 31.596603 4278848768
-1041.5717 -93.696426 31.746069 4279506179
-1041.4034 -91.444916 31.530571 4279179269
-1041.244 -88.715134 31.256496 4278653192
-1040.9911 -86.152115 31.825424 4278979849
-1040.7572 -83.583694 31.253489 4280225546
-1040.5214 -81.078484 31.270542 4279505165
-1040.2476 -78.981979 31.486809 4278652686
-1039.885 -76.303429 31.460348 4278718480
-1039.7638 -73.860443 31.56144 4279438854
-1039.554 -71.119392 31.157227 4279963660
-1039.3826 -68.81646 31.413954 4278258704
-1039.1501 -66.2528 30.806911 4278914052
-1039.1472 -64.593071 31.340088 4278980871
-1038.5391 -61.007885 31.4422 4278587906
-1038.1968 -58.45145 31.242201 4278979591
-1038.0574 -56.415287 30.252848 4279111173
-1037.7773 -53.919514 30.9375 4278716683
-1037.3628 -50.376007 32.212749 4279832581
-1037.2532 -49.450737 30.604477 4279112711
-1037.1271 -46.303997 30.631775 4279635456
-1036.8668 -43.749302 31.833426 4278849793
-1036.6268 -41.054531 32.085571 4279178496
-1036.3839 -38.998215 31.683397 4279373833
-1036.0513 -36.199142 30.935555 4279897603
-1035.8215 -34.325195 31.447546 4279503616
-1035.4919 -30.731155 31.515213 4279310355
-1035.2705 -28.576187 31.733093 4278258186
-1035.181 -27.199341 32.228943 4280420624
-1034.9749 -25.672493 30.897446 4279243529
-1034.8542 -23.781851 31.291077 4279701774
-1034.5828 -21.327307 31.130035 4279374862
-1034.3734 -18.800337 32.009235 4278719234
-1034.1246 -16.265081 31.568115 4279702536
-1034.1633 -13.284607 30.864014 4279507474
-1037.0967 -11.639442 32.287811 4280486427
-1034.6049 -12.069613 31.094767 4279508742
-1043.5991 -110.5601 33.601089 4279437573
-1043.3788 -108.59501 33.72121 4278390273
-1043.1516 -106.22285 33.70219 4278715648
-1042.9603 -103.94495 34.302406 4279832833
-1042.688 -101.80418 34.348083 4278913039
-1042.3539 -100.29632 33.331909 4279833871
-1042.2395 -98.475304 33.850842 4279701250
-1042.1382 -96.17012 34.081127 4279308032
-1041.8234 -93.656006 33.553658 4280158980
-1041.5815 -91.192162 33.569336 4278720000
-1041.3625 -89.357674 34.661621 4279375360
-1041.1782 -86.526947 33.588806 4279112206
-1040.9135 -83.842506 33.428253 4278979351
-1040.6558 -80.784897 33.292725 4279701770
-1040.2534 -78.367088 34.719513 4279311130
-1040.0364 -76.506424 33.742157 4278717195
-1039.8625 -73.358162 32.605103 4279963392
-1039.5085 -68.705254 33.070084 4278717448
-1039.2841 -66.626419 33.287933 4279045632
-1038.9447 -63.492081 34.186462 4279701263
-1038.6377 -60.192497 34.740143 4279965449
-1038.4198 -59.049385 33.530029 4280096512
-1038.149 -56.235401 33.484924 4279504131
-1037.941 -53.730251 33.786037 4279176970
-1037.6339 -51.56918 33.38139 4278389504
-1037.3066 -48.435448 33.532166 4278784258
-1037.2217 -46.372974 33.50465 4279635723
-1036.9785 -44.114285 34.694172 4279638784
-1036.7526 -41.73111 33.942322 4279046658
-1036.5553 -38.841759 32.97049 4279765512
-1036.2885 -36.449726 32.739197 4279963904
-1035.9154 -33.466827 32.96479 4279373824
-1035.665 -31.759537 34.325294 4278653448
-1035.3806 -28.374563 33.746918 4279634183
-1035.2343 -26.721258 33.192707 4279044621
-1034.8203 -23.01235 33.831196 4278523921
-1034.7383 -21.263367 34.353012 4279965199
-1034.2643 -16.05755 34.385517 4278717975
-1034.1442 -13.712598 33.310585 4279309067
-1036.6135 -12.082856 33.984261 4279178248
-1034.6307 -12.2836 33.756348 4278722567
-1043.7708 -110.63068 36.522034 4278583576
-1043.52 -108.70462 36.008198 4278980358
-1043.2926 -106.5136 37.261322 4279372032
-1043.0331 -103.56233 35.154358 4280161024
-1042.7188 -101.11218 35.513611 4278849539
-1042.4387 -100.13084 35.062378 4279897365
-1042.3718 -98.853172 36.204018 4279963413
-1042.1758 -95.635864 35.400982 4278193921
-1042.0598 -94.066376 36.203491 4280092163
-1041.6586 -91.328445 36.671936 4278979342
-1041.3663 -88.716789 36.832813 4279046153
-1041.0764 -85.540176 35.090302 4279832320
-1040.9539 -84.031219 36.990479 4278454793
-1040.7312 -81.300575 36.355164 4279637760
-1085.5402 -77.898315 37.240307 4280888627
-1084.5101 -77.868599 37.263111 4280952879
-1040.3657 -78.578598 35.368591 4279244052
-1085.5093 -76.638145 37.177784 4280165932
-1084.5659 -76.613708 37.223858 4280166956
-1040.1085 -76.495087 37.024994 4279437833
-1039.9053 -75.21463 35.718445 4278194946
-1039.8896 -73.77375 36.332623 4279112968
-1084.3331 -70.863327 37.239609 4281150514
-1039.5802 -71.042564 36.746143 4279767560
-1039.6122 -69.049934 36.246288 4279372551
-1085.0906 -66.438004 37.464294 4278392832
-1084.757 -66.169052 37.444611 4279771672
-1039.3497 -66.378258 36.066082 4279308551
-1039.0975 -63.848339 36.422607 4279111683
-1083.3392 -60.345776 37.351555 4280232998
-1038.7758 -60.76004 37.102844 4280226837
-1083.1536 -58.793152 37.176411 4280494378
-1082.0636 -58.596371 37.249996 4279839534
-1038.4591 -58.432869 36.279629 4279635968
-1082.0486 -56.179585 37.240059 4280757044
-1040.2529 -56.025349 37.133167 4280885528
-1038.244 -56.922073 36.377949 4278782222
-1040.3022 -54.828842 36.884338 4281082650
-1037.9937 -53.710129 36.209839 4278391040
-1037.7263 -51.128254 36.06374 4278192399
-1037.5111 -49.057938 35.095184 4279961625
-1037.4916 -48.802532 35.422363 4279569924
-1037.374 -46.100018 36.446888 4279503881
-1037.1989 -43.775852 36.663387 4279438853
-1037.8378 -41.021065 37.443501 4279245833
-1036.9783 -41.183388 36.701893 4279176963
-1037.7241 -39.779106 37.413925 4278262803
-1036.7704 -39.10078 36.903114 4280028425
-1037.6682 -35.355949 37.320648 4280295180
-1036.5895 -35.879818 36.777069 4278784001
-1080.5961 -33.83942 37.049408 4281018401
-1079.4182 -33.813389 36.775234 4280692259
-1036.6752 -33.961651 37.06863 4279831562
-1080.3469 -31.453379 36.922398 4281150242
-1079.3306 -31.27849 36.749111 4281216302
-1035.7047 -31.015474 36.132832 4279439621
-1036.0817 -28.517227 36.832249 4279767814
-1035.8173 -26.340498 36.978317 4279636741
-1034.9744 -25.276604 35.601654 4280291075
-1035.6327 -23.558029 37.184402 4279308560
-1034.9528 -23.678112 36.407207 4278653186
-1035.655 -21.218025 36.52142 4279770381
-1034.8136 -21.305147 35.616989 4278718483
-1035.4023 -18.770222 36.551334 4279966485
-1034.6056 -18.756994 36.18269 4278848787
-1035.2869 -16.290216 36.619343 4280295461
-1034.594 -16.251133 36.373695 4279176199
-1035.5433 -13.546562 36.646111 4280953631
-1034.5148 -13.776525 36.360107 4279702803
-1036.6173 -12.310062 36.09314 4280095254
-1045.2646 -108.46499 39.522034 4279506206
-1044.1874 -108.35731 39.467087 4279046151
-1045.2729 -106.12106 39.105118 4280557070
-1044.1503 -106.38142 39.422295 4279242755
-1045.0143 -104.53299 39.565643 4279899394
-1043.2917 -104.02679 38.849636 4278391048
-1043.2675 -100.94428 39.68557 4278586120
-1044.0819 -99.360046 39.957111 4278259456
-1042.3997 -98.992119 39.818115 4279111442
-1042.9708 -96.177902 39.477345 4279175936
-1042.2772 -96.441048 38.873047 4279176704
-1043.002 -93.768654 39.34885 4279503623
-1042.2112 -93.619194 38.670063 4279832074
-1043.0416 -91.317268 39.075661 4279111943
-1042.0436 -91.1446 38.794598 4279111176
-1042.9458 -88.80584 39.492496 4279899145
-1041.9265 -88.568871 39.109119 4279373061
-1042.7927 -86.532112 39.179184 4279440136
-1041.7876 -86.262268 38.825699 4279308291
-1085.7726 -83.776939 37.896622 4280101158
-1084.688 -83.769539 38.023502 4280888109
-1042.6414 -83.757263 38.799812 4280032264
-1041.6899 -83.707275 38.921906 4279242762
-1085.6083 -81.311958 38.462677 4280952619
-1084.6362 -81.07579 38.470673 4281018413
-1042.5468 -82.216324 38.84491 4279771171
-1041.566 -81.185791 38.641895 4279112456
-1085.522 -79.110428 38.259659 4280691234
-1084.4471 -79.142403 38.120266 4281215530
-1041.2441 -78.733719 38.816917 4279243019
-1085.376 -75.305656 37.635651 4280756009
-1084.2159 -75.487061 37.637741 4280887597
-1041.0646 -76.329178 39.141895 4279506185
-1085.3446 -73.954208 37.807621 4280297000
-1084.1683 -73.571495 37.873241 4280625702
-1040.8649 -73.703629 39.383049 4279177743
-1039.9839 -74.4757 39.125732 4279307520
-1085.2814 -72.232849 37.594543 4279901744
-1084.1021 -71.241928 37.59 4280625960
-1040.7578 -71.284828 39.522961 4279637771
-1039.7432 -70.771423 39.000656 4279178761
-1085.0188 -68.29628 37.679291 4278919718
-1083.7596 -68.643349 38.137203 4280822568
-1082.4348 -68.207016 39.134369 4280627513
-1040.7174 -68.73967 38.717522 4280293144
-1039.7693 -68.478767 38.52544 4279766025
-1085.0498 -67.109108 37.653137 4278917656
-1083.5538 -66.323456 37.869225 4280756521
-1040.6085 -66.233986 38.477264 4279834384
-1039.7001 -66.099876 38.40905 4278521349
-1083.449 -63.854328 38.254189 4280559908
-1082.3079 -63.75613 38.27906 4280952620
-1040.3851 -63.871056 38.869297 4280555277
-1039.6195 -63.773384 38.415695 4279504898
-1083.2179 -61.492168 38.05846 4280560170
-1082.2504 -61.102783 38.099133 4280823340
-1040.3141 -61.215996 39.0075 4280425993
-1039.4623 -61.126671 39.03825 4279505929
-1082.1265 -59.678711 37.772156 4281150765
-1040.0991 -58.738209 38.724152 4279312419
-1039.2528 -58.830719 38.808048 4279439889
-1081.4373 -56.541389 38.375793 4280954162
-1040.1709 -57.190269 37.78714 4279574568
-1039.0287 -56.20612 38.852734 4279767054
-1038.8655 -53.743973 38.613586 4279375123
-1038.5386 -51.303562 38.896328 4279242258
-1038.2301 -48.759426 39.028801 4279309323
-1038.1162 -46.279072 38.159248 4279177742
-1037.98 -43.785233 38.070095 4279702541
-1037.4414 -42.989925 37.852356 4278523924
-1037.9731 -42.154465 37.849106 4278588954
-1037.4636 -42.140915 37.83136 4278978567
-1037.6624 -38.574306 37.849052 4280161540
-1037.0352 -38.187756 37.801937 4279897606
-1078.8977 -36.006454 38.591675 4280889121
-1037.5991 -36.531948 37.83744 4280621334
-1036.8857 -36.374138 37.782745 4279306502
-1078.5 -32.777927 38.959881 4280429611
-1036.8516 -32.9464 37.61412 4280161282
-1036.4503 -31.179792 37.710373 4279309070
-1036.1803 -29.551275 37.603733 4279703565
-1036.1719 -25.786404 37.636414 4279769640
-1035.7833 -24.374701 37.593987 4279440663
-1035.5946 -13.225975 38.787598 4280889903
-1044.4775 -110.25159 40.225464 4279503872
-1045.3337 -109.50706 40.101833 4279965207
-1044.3302 -109.39704 40.198147 4279372032
-1044.259 -105.47524 40.1422 4279309830
-1044.0198 -103.68819 40.126621 4279243277
-1044.0925 -101.57742 40.198322 4279309063
-1043.3363 -98.58004 40.660297 4278718985
-1042.4072 -97.946266 40.023357 4279306521
-1043.5586 -96.501236 40.236412 4279244037
-1043.8478 -94.75412 40.005859 4280097046
-1083.5775 -80.796043 41.202015 4281084702
-1083.7324 -79.859741 40.197205 4281084204
-1042.3617 -79.447952 41.78479 4279902487
-1082.9371 -76.343697 41.669495 4281216555
-1082.333 -70.51432 42.110352 4281215532
-1082.2408 -68.432495 40.578674 4280692536
-1082.7085 -76.639214 43.351837 4281346599
-1082.2679 -71.113632 42.501343 4278920485
-1082.4043 -77.1259 45.574341 4280494627
-1081.5854 -80.1194 51.260437 4280233512
-1042.8484 -81.254868 51.293396 4280296978
-1081.697 -78.911758 50.625793 4279904545
-1080.9739 -74.33725 51.806946 4280822070
-1038.4181 -41.384094 51.527893 4280756239
-1042.9446 -82.929817 53.573669 4281867820
-1081.1064 -81.043594 54.73238 4280823319
-1042.9465 -82.244034 53.739777 4280886314
-1080.6626 -75.328926 54.006897 4279380514
-1080.7866 -74.794952 53.154907 4280363555
-1076.9998 -43.20977 54.35849 4280625200
-1038.3945 -41.244621 53.925018 4280691228
-1038.2632 -39.431107 54.023407 4280691493
-1036.3696 -21.076889 53.986023 4280822279
-1035.9045 -15.182144 53.20343 4280428349
-1058.0903 -12.636383 54.607147 4281939513
-1056.2312 -12.9002 54.730385 4281480763
-1053.3883 -12.986296 54.708176 4282070842
-1050.6647 -13.163372 54.583008 4281350974
-1048.2158 -13.708473 54.403809 4281874480
-1035.9128 -14.849052 53.200745 4281608506
-1072.8779 -10.580802 54.545303 4281219382
-1070.9553 -10.70104 54.312149 4281808183
-1068.5547 -10.951501 54.717415 4281546560
-1065.9351 -11.818634 54.968628 4281546547
-1064.6454 -10.118599 54.889648 4281677881
-1061.4261 -12.38028 54.765289 4281415478
-1055.7379 -11.861842 54.893543 4281743412
-1053.5525 -12.124466 54.949829 4281875008
-1072.933 -9.2687178 54.342705 4281807925
-1071.354 -9.3814249 54.515778 4281480500
-1068.4827 -9.6675978 54.526314 4281612862
-1064.6539 -9.7852859 54.883057 4281480253
-1070.7451 -110.19075 57.061859 4281153324
-1068.0251 -110.53099 57.347961 4281742394
-1066.0034 -110.42665 57.49054 4281611318
-1061.2524 -111.09026 57.21109 4281281575
-1071.3734 -109.94817 57.449036 4281086266
-1082.7332 -95.451508 55.138977 4281083704
-1081.4963 -86.686699 55.869354 4280887845
-1081.0618 -83.184021 57.234192 4281281323
-1042.9707 -82.650253 57.164368 4281412396
-1080.859 -81.659119 56.50061 4279577629
-1042.9794 -82.317719 57.157959 4281543206
-1042.454 -79.039139 56.431213 4279970304
-1079.6851 -71.634323 57.010712 4281545012
-1079.0314 -62.965626 55.856098 4280691760
-1078.3584 -58.775909 56.637451 4280824111
-1077.9078 -55.874722 57.198833 4280690732
-1076.8307 -55.552608 57.398777 4280430375
-1074.7769 -56.305614 57.274097 4280430127
-1067.5934 -56.967758 57.498596 4280954929
-1062.5778 -57.165848 57.498901 4280494892
-1062.241 -57.323921 57.490723 4280495159
-1057.5931 -56.367691 57.447693 4281348150
-1056.762 -56.347729 57.419067 4280168487
-1076.8427 -54.449463 57.319164 4280494378
-1069.1377 -53.479954 57.302708 4280823087
-1040.0289 -54.566788 56.546082 4278659868
-1076.1306 -50.372204 57.279083 4281018651
-1073.136 -50.296837 57.175415 4281084984
-1069.1151 -52.210979 57.442261 4281086256
-1076.48 -49.34647 57.070671 4280035369
-1073.1185 -48.709 57.279282 4281150510
-1075.3887 -43.778175 57.491566 4281217073
-1073.9039 -44.140453 57.44846 4280757547
-1070.8418 -43.689999 57.464859 4281216303
-1069.0729 -44.014248 57.448421 4280692519
-1065.7153 -44.590492 57.481125 4280823585
-1063.4987 -44.535309 57.40451 4280561703
-1062.2242 -44.503555 57.360474 4281151526
-1076.4146 -41.302597 56.701374 4281150240
-1071.1625 -40.405617 57.445068 4280954928
-1038.3689 -40.816463 56.427418 4280756246
-1075.629 -38.751953 57.218647 4281151023
-1073.757 -38.732895 57.415279 4281151019
-1071.5638 -38.703838 57.415459 4280954420
-1044.1003 -38.307476 57.207905 4281086508
-1041.1787 -38.458942 57.409985 4281282357
-1038.2485 -38.800869 56.862892 4280559655
-1075.7554 -36.243584 56.898819 4281018672
-1073.2716 -36.432381 57.351219 4281413165
-1072.1206 -36.162613 57.374733 4280560691
-1067.1226 -35.477303 57.272949 4281544755
-1051.3568 -35.277313 57.075886 4281347883
-1048.9915 -35.180618 57.062878 4281019954
-1046.8199 -35.655354 57.172417 4281545006
-1043.595 -35.490776 57.277969 4281085231
-1041.249 -35.800575 57.335754 4280954424
-1038.1892 -36.125141 57.160156 4280560937
-1075.1753 -33.186142 57.431904 4281151526
-1073.9299 -33.652851 57.316151 4280822832
-1071.3466 -33.842247 57.299053 4280757292
-1068.6058 -33.341564 57.216587 4281281836
-1066.7457 -33.604557 57.236317 4280888108
-1063.4471 -33.468216 57.150246 4280757029
-1061.6932 -33.081844 57.190678 4281281578
-1055.8455 -33.086861 57.096703 4280627244
-1053.5615 -33.565269 56.951725 4281020202
-1051.2263 -33.768234 56.620804 4280954671
-1048.6924 -33.716309 56.834049 4281085487
-1046.1266 -33.749752 57.058098 4281019955
-1043.7639 -33.676456 56.895336 4280954670
-1041.2729 -33.831245 57.031025 4281151536
-1038.8369 -33.75967 56.86919 4281216811
-1073.9031 -31.593958 57.308453 4281085486
-1071.0809 -31.468327 57.190613 4280888366
-1069.3947 -31.539848 57.201538 4281413685
-1060.548 -30.648603 57.08453 4281151794
-1058.4774 -30.778595 57.211533 4280823088
-1056.2419 -31.193769 57.056168 4280757808
-1053.7253 -31.177414 57.061798 4281020207
-1051.233 -31.127142 56.965446 4280954417
-1048.8236 -31.365406 57.014347 4280954921
-1046.2224 -31.402689 56.964741 4280823600
-1043.8041 -31.597605 57.005001 4280692782
-1041.2482 -31.609236 57.132626 4280758317
-1039.0217 -31.533077 56.880013 4280889391
-1074.0492 -28.546528 57.254269 4281347634
-1071.0143 -28.280256 57.197189 4281151539
-1068.7957 -28.480398 57.183559 4281281842
-1065.9719 -28.129772 57.164196 4280954410
-1064.671 -28.08868 57.233597 4281347632
-1061.1353 -28.604057 56.830647 4281347625
-1058.7372 -28.815178 56.688187 4280758063
-1056.2162 -28.763062 56.769176 4281085739
-1053.7545 -28.811497 56.754505 4280955185
-1051.2316 -28.667517 56.666271 4280954670
-1048.7158 -28.666256 56.659702 4281216817
-1046.2437 -28.815895 56.637005 4281347891
-1043.6824 -28.614532 56.734055 4280954158
-1041.2841 -28.78644 57.029202 4280954674
-1038.8763 -28.759907 56.90324 4281347888
-1037.3002 -28.426569 56.853893 4280953904
-1074.2628 -26.981018 57.103302 4281085485
-1070.9058 -26.76182 57.141926 4280823593
-1068.6379 -26.641926 57.080772 4280954156
-1066.1324 -26.424599 57.02457 4280889134
-1063.9204 -25.947714 56.996101 4281217072
-1061.2242 -26.162054 57.185062 4281282095
-1058.7246 -26.307013 57.140003 4280757549
-1056.1705 -26.223385 57.147831 4281151278
-1053.6726 -26.189671 57.108433 4281085999
-1051.3163 -26.092041 57.073769 4281282354
-1048.833 -26.101057 57.1954 4280888878
-1046.1115 -26.369829 56.912811 4280889389
-1043.7118 -26.275698 57.060379 4280758318
-1041.3535 -26.445684 57.048962 4281086256
-1039.0028 -26.850834 57.040249 4281282607
-1037.2217 -26.477116 56.759453 4281019437
-1068.4064 -22.522385 57.468506 4281150511
-1065.4377 -23.539902 57.234192 4281019954
-1063.7737 -23.758904 57.133568 4281020461
-1061.0475 -23.846003 57.196213 4281151283
-1058.7382 -23.817175 57.077171 4280954414
-1056.222 -23.712418 57.227852 4281085998
-1053.7614 -23.728859 57.150143 4281086257
-1051.2208 -23.751913 57.191357 4280954920
-1048.6941 -23.740387 57.117935 4281217072
-1046.2867 -23.72681 57.061172 4281020462
-1043.811 -23.689005 57.180702 4280627248
-1041.5591 -23.129215 57.104492 4281151788
-1038.783 -22.79516 57.278843 4281414194
-1036.8722 -23.336605 57.016647 4280953382
-1073.5671 -21.634214 57.177578 4281151265
-1070.4604 -20.245827 57.491455 4281085994
-1068.2578 -21.273247 57.242023 4280954418
-1066.2097 -21.300545 56.937096 4281085746
-1063.7389 -21.200916 56.638741 4281151277
-1061.2214 -21.211706 56.87603 4280955183
-1058.9133 -21.336443 56.979477 4280823853
-1056.3165 -21.209896 56.749756 4280889651
-1053.769 -21.301998 56.996601 4281217329
-1051.3029 -21.269209 56.954391 4281151280
-1048.7775 -21.181908 56.735672 4281151791
-1046.2678 -21.296436 56.599697 4281151536
-1043.7902 -21.094683 56.534561 4281282610
-1041.1969 -21.374268 56.645935 4281348907
-1038.8792 -21.227833 56.923325 4281217586
-1036.9364 -21.131676 56.664108 4280888102
-1071.058 -18.541935 57.481892 4281020720
-1067.5082 -19.064325 57.276348 4281282358
-1066.2317 -18.798923 56.966358 4280889391
-1063.8372 -18.730654 56.782215 4281020462
-1061.1653 -19.208292 57.000465 4280824880
-1058.7291 -18.676176 57.05291 4281217826
-1056.1737 -18.671703 57.028915 4281152306
-1053.8148 -18.726089 57.346966 4281151540
-1051.5618 -18.954773 57.302639 4281348396
-1048.6665 -19.208456 57.137871 4281283119
-1046.3606 -19.400557 56.907627 4281283121
-1043.7295 -19.461472 56.610641 4280954930
-1041.1925 -19.430363 56.757824 4281348403
-1039.0284 -19.308094 56.683506 4281086000
-1036.9044 -19.077 56.820137 4280757290
-1073.0121 -15.750447 57.050186 4281086769
-1071.6052 -16.209408 57.43605 4281217844
-1068.3481 -16.105591 57.212097 4281413680
-1066.2773 -16.299086 56.811314 4281282608
-1063.7585 -16.310829 56.753334 4281020466
-1061.2782 -16.077501 56.888245 4281086002
-1058.7534 -16.126015 56.901295 4281282863
-1056.3256 -16.201204 56.636066 4281151539
-1053.7814 -16.248962 56.717869 4281217331
-1051.3241 -16.288866 56.628788 4281479475
-1048.5726 -15.665617 57.270641 4281611315
-1046.2471 -15.615361 57.197174 4281152055
-1043.926 -15.548145 57.074383 4281676857
-1040.2727 -15.109711 57.049622 4282333485
-1038.6887 -15.205495 57.106186 4281743151
-1036.4094 -15.930893 57.03619 4281348660
-1072.8251 -13.928963 57.108051 4281283119
-1071.7904 -13.227727 57.196735 4281348403
-1068.6445 -13.599359 57.275135 4281414448
-1066.222 -13.75762 56.892757 4281348400
-1063.7716 -13.759515 56.582275 4281348660
-1061.3135 -13.611423 56.46978 4281348658
-1058.8293 -13.737726 56.687302 4281479982
-1056.2289 -13.731915 56.153862 4281349170
-1053.7042 -13.752594 56.412647 4281480240
-1051.3724 -13.780219 56.620029 4281611828
-1048.6467 -13.7953 56.435909 4281808694
-1046.4951 -14.093284 56.255474 4281742651
-1043.7706 -14.619121 56.619774 4281546552
-1041.1757 -14.560918 56.372208 4281546809
-1038.7023 -14.52141 56.25108 4281874491
-1036.4441 -14.307302 56.441048 4281742644
-1072.8462 -11.857816 56.565403 4281349688
-1071.2667 -11.498741 56.178146 4281480502
-1068.8588 -11.656058 56.046955 4281546297
-1066.2545 -11.285453 55.818203 4281612091
-1063.8984 -11.318704 55.393696 4281612086
-1061.1724 -11.903033 55.513992 4281480758
-1058.8369 -11.905351 55.491276 4281808956
-1056.5725 -11.89537 55.525749 4281743416
-1053.9685 -11.871706 56.175293 4281678143
-1052.1375 -11.875648 56.199631 4281940534
-1048.6302 -12.029142 55.782684 4281743161
-1046.1163 -12.456223 55.778748 4281941311
-1071.2577 -9.6440334 55.277012 4281415224
-1069.2939 -9.703373 55.296021 4281809728
-1066.401 -9.5962582 55.456329 4281611833
-1064.5276 -9.6466064 55.297729 4281545527
-1071.2615 -110.14249 58.331924 4281741624
-1068.5039 -110.31087 58.291367 4281545269
-1066.4116 -110.41797 58.431885 4281414195
-1063.4556 -110.57545 58.629803 4281217076
-1061.2998 -110.53336 58.552498 4281282604
-1059.2192 -110.35561 59.083176 4281348146
-1055.3958 -110.44832 59.174976 4281348140
-1053.7893 -110.41082 59.23584 4280824113
-1050.2395 -110.33452 59.749329 4281216301
-1048.7535 -111.5993 59.28928 4281478964
-1047.2493 -110.76935 59.193096 4281347889
-1078.277 -108.00907 58.771931 4280757552
-1076.3152 -107.88473 59.055435 4281283378
-1073.5199 -108.25892 59.150112 4280955177
-1071.0702 -108.58802 59.228973 4281217072
-1068.83 -108.78519 59.085419 4281020207
-1066.2535 -108.59901 59.533043 4281347632
-1064.2762 -108.61498 59.620792 4281413678
-1061.2137 -108.74215 59.478954 4281216556
-1058.7294 -108.78728 59.52877 4281085231
-1056.2996 -108.81242 59.465294 4280954410
-1053.5824 -108.67008 59.711887 4280823084
-1050.8936 -109.96652 59.963959 4281085996
-1048.9688 -108.48698 59.808331 4281020457
-1047.03 -108.63368 59.806686 4281215524
-1081.3666 -106.06431 59.640648 4280888881
-1078.6003 -106.36224 59.485012 4280758317
-1076.2456 -106.27991 59.5392 4281085738
-1073.6952 -106.27533 59.672054 4280954669
-1071.181 -106.20418 59.747501 4280823595
-1068.7644 -106.23306 59.533085 4281084972
-1066.2432 -106.28762 59.601124 4280954412
-1063.9667 -106.30115 59.622078 4281216302
-1061.3499 -106.72755 59.626228 4281346862
-1058.5284 -106.93929 59.544262 4281347876
-1056.0887 -106.96053 59.722919 4281085732
-1053.642 -106.84173 59.880905 4280954403
-1052.1515 -105.97446 59.998535 4280102958
-1048.9563 -107.0133 59.898972 4280430379
-1047.3058 -107.18188 59.858459 4281019436
-1081.1792 -103.72157 59.589222 4280692013
-1078.7789 -103.80739 59.515484 4280954156
-1076.2588 -103.87552 59.622887 4280823344
-1073.7886 -103.98672 59.677799 4280888109
-1071.396 -104.09969 59.848545 4281085739
-1068.5953 -104.52574 59.738068 4280889133
-1066.5188 -104.68237 59.754189 4281478453
-1064.2075 -104.84867 59.733948 4280823858
-1081.9141 -101.91654 59.714783 4280560686
-1078.3719 -101.37811 59.961086 4280888107
-1075.7047 -100.29764 59.381866 4280953643
-1073.6382 -100.33137 59.882584 4281150768
-1071.3052 -100.21062 59.879921 4281085235
-1068.6757 -100.54324 59.736538 4280954160
-1066.2716 -100.72556 59.670673 4280757549
-1064.071 -101.03271 59.724098 4280888620
-1061.4233 -100.65164 59.666225 4280889117
-1058.8976 -100.51394 59.757339 4280954408
-1056.4236 -101.07717 59.629059 4280757547
-1053.8723 -100.88329 59.853333 4281216560
-1051.0775 -100.41129 59.847004 4280757281
-1049.4678 -100.82677 59.739822 4281020208
-1046.379 -101.19263 59.645985 4280692013
-1044.9922 -100.48648 59.596863 4281018916
-1080.9297 -98.297989 59.375332 4280560682
-1078.6638 -98.67617 59.509632 4280823594
-1076.2372 -98.695801 59.405025 4280757292
-1073.7284 -98.821068 59.655285 4281019437
-1071.2096 -98.736771 59.578339 4280954152
-1068.6648 -98.762253 59.605354 4281019438
-1066.2373 -98.871765 59.655788 4280757540
-1064.3978 -98.278778 59.646187 4280954157
-1060.9984 -99.107872 59.661144 4280560682
-1058.6882 -98.837166 59.792305 4280757553
-1056.3127 -98.949623 59.657528 4280823084
-1053.8951 -99.078911 59.910652 4280692015
-1051.2777 -99.458168 59.834076 4280364071
-1049.4674 -99.4673 59.734623 4281216048
-1044.975 -99.778595 59.973145 4280494376
-1080.968 -96.267563 59.502174 4280822831
-1078.7758 -96.283852 59.598335 4280953900
-1076.2386 -96.224457 59.707668 4280691749
-1073.7522 -96.296066 59.719936 4281019947
-1071.1997 -96.269684 59.661388 4280954413
-1068.827 -96.37989 59.640175 4280888104
-1066.2339 -96.433952 59.618298 4280822825
-1064.2385 -97.204956 59.577087 4281216567
-1057.3514 -97.468781 59.999939 4280430592
-1044.3617 -95.42865 59.624451 4279706662
-1080.9158 -94.383873 59.832245 4280756524
-1078.8363 -93.916252 59.913624 4280757287
-1076.266 -94.164291 59.92408 4280757546
-1073.98 -94.061668 59.773407 4281020202
-1071.7062 -93.830605 59.710533 4280692517
-1065.793 -94.915916 59.582539 4280953899
-1052.5276 -92.643784 59.409882 4280233784
-1051.5984 -92.937729 59.590435 4281020205
-1048.6406 -93.142097 59.861305 4281150751
-1046.144 -92.916687 59.60915 4280954153
-1044.5027 -93.482109 59.3088 4280167466
-1080.838 -91.051239 59.844044 4280822311
-1078.7593 -91.281425 59.949608 4280888367
-1075.6594 -91.093796 59.850201 4280756517
-1073.7878 -91.124954 59.696362 4281150507
-1071.6331 -91.029724 59.637192 4280954410
-1068.3854 -90.829796 59.586185 4280888102
-1066.3 -90.846558 59.485981 4280626483
-1063.7271 -90.82312 59.529671 4280757294
-1061.0225 -90.771141 59.709324 4281019947
-1058.6775 -90.94059 59.615814 4280626730
-1056.2175 -91.136223 59.472469 4280560682
-1053.7532 -91.2957 59.409676 4280757291
-1051.1821 -91.22345 59.317429 4280888622
-1048.7336 -91.261101 59.575958 4281019433
-1046.2603 -91.262032 59.370399 4280954154
-1044.4919 -91.222565 59.087681 4280756515
-1080.6173 -88.684601 59.324112 4280626472
-1078.7495 -88.725647 59.337677 4280626476
-1076.243 -88.675117 59.508732 4281019691
-1073.7686 -88.752007 59.200039 4280954156
-1071.2264 -88.700577 58.907227 4280626478
-1068.6971 -88.771332 59.10004 4280888623
-1066.2482 -88.764023 58.923637 4280691246
-1063.7091 -88.782654 59.042442 4281151019
-1061.1985 -88.685623 58.915737 4280757293
-1058.6945 -88.778046 58.960327 4280560680
-1056.3385 -88.797523 58.970005 4280626222
-1053.7997 -88.834366 59.265553 4280954159
-1051.1719 -88.762291 58.884857 4281216306
-1048.7466 -88.863838 59.07217 4280626473
-1046.2633 -88.71611 59.455681 4280626475
-1044.5095 -88.603577 59.220974 4280822828
-1080.5907 -86.364418 58.344646 4280625709
-1078.7894 -86.195236 58.324783 4280757289
-1076.2386 -86.289001 58.608677 4280757549
-1073.7838 -86.220718 58.481468 4280953384
-1071.2917 -86.203995 58.611881 4280822568
-1068.8219 -86.287071 58.570911 4280888876
-1066.2362 -86.278893 58.896755 4280626734
-1063.7123 -86.238747 59.139442 4280888615
-1061.2205 -86.201508 59.028126 4280757035
-1058.7213 -86.278313 59.255039 4280626221
-1056.2041 -86.199547 59.529205 4280625961
-1053.7555 -86.305634 59.527054 4280954409
-1051.2465 -86.185417 59.355072 4280757545
-1048.66 -86.304207 59.155891 4280889135
-1046.1062 -86.266121 59.617691 4281282347
-1044.2101 -86.071716 59.444965 4280495142
-1080.4835 -83.926125 58.528278 4280953387
-1078.7454 -83.865768 58.531818 4280691760
-1076.2286 -83.692078 58.714184 4280626218
-1073.7448 -83.568802 58.863583 4280888622
-1071.2603 -83.752769 58.821159 4280692009
-1068.7965 -83.746651 58.968273 4280626474
-1066.2419 -83.770859 59.175797 4280954414
-1063.7727 -83.743752 59.12513 4280626727
-1061.3104 -83.734726 59.172451 4280953896
-1058.6952 -83.693085 59.598263 4280691496
-1056.2621 -83.743538 59.560986 4280560683
-1053.6632 -83.715492 59.551769 4281151016
-1051.2094 -83.689178 59.622505 4281019941
-1048.8467 -83.796349 59.795033 4280954670
-1045.9659 -84.861595 59.723389 4281150766
-1043.7609 -84.28466 59.629211 4280625707
-1080.2848 -81.467995 59.048107 4280954668
-1078.7025 -81.18856 59.005989 4280757295
-1076.1863 -81.262054 59.077991 4280822828
-1073.6949 -81.202675 58.984592 4281150767
-1071.1952 -81.312645 58.777542 4280823342
-1068.7177 -81.319534 58.968601 4281085231
-1066.1874 -81.283096 59.171646 4280560943
-1063.7302 -81.219032 59.13493 4280758054
-1061.1952 -81.31234 59.286503 4280888360
-1058.7302 -81.182503 59.444897 4281018921
-1056.1229 -81.328865 59.656025 4280691756
-1053.8497 -81.287895 59.65992 4280888362
-1051.1779 -81.26387 59.679115 4280953900
-1048.808 -81.232315 59.77396 4281151280
-1046.2288 -81.083 59.613686 4280823598
-1043.7631 -80.911499 59.099236 4280626473
-1080.2744 -79.450417 58.790241 4280888352
-1078.7621 -78.769455 58.72834 4280822570
-1076.262 -78.77507 58.940929 4281019434
-1073.7689 -78.720184 59.003242 4281019695
-1071.2196 -78.781876 59.215889 4280757296
-1068.7917 -78.692703 59.396122 4280757035
-1066.317 -78.822571 59.267353 4280953902
-1063.7957 -78.680756 59.193401 4280822825
-1061.2805 -78.721443 59.264599 4280692007
-1058.8245 -78.712921 59.080566 4280953900
-1056.2583 -78.734367 59.621365 4280626476
-1053.7312 -78.653931 59.42297 4280954158
-1051.2795 -78.72229 59.187191 4280953899
-1048.8011 -78.735367 59.11631 4281019182
-1046.2748 -78.747124 59.388592 4280954156
-1043.8042 -78.65844 59.067539 4280560680
-1042.3192 -78.001686 58.264404 4280035101
-1078.6652 -76.142471 59.102043 4280560934
-1076.2988 -76.265373 59.108006 4280626220
-1073.6478 -76.150894 59.333073 4280757549
-1071.2495 -76.255753 59.045116 4281084973
-1068.7653 -76.316872 58.806831 4280757544
-1066.3141 -76.252319 58.658249 4280888108
-1063.7618 -76.297661 58.914913 4280823085
-1061.204 -76.229828 58.703789 4280888616
-1058.6813 -76.260399 58.759232 4281019691
-1056.299 -76.238945 58.883373 4280822826
-1053.7828 -76.254341 59.09428 4281019947
-1051.2404 -76.213097 58.953953 4281019435
-1048.7795 -76.262245 58.889687 4281019951
-1046.2653 -76.254585 59.314812 4280757290
-1043.7589 -76.368988 59.354546 4280954159
-1042.2928 -76.359253 59.021576 4280035630
-1078.5946 -73.756348 58.323002 4281085229
-1076.3182 -73.843628 58.395191 4280757799
-1073.756 -73.798302 58.540863 4280626729
-1071.2682 -73.764236 58.597233 4280954411
-1068.7892 -73.768372 58.4636 4280888355
-1066.2017 -73.779732 58.609753 4280888365
-1063.7239 -73.784485 58.680176 4280888365
-1061.2056 -73.704247 58.841866 4280888618
-1058.6918 -73.767014 58.943707 4280757033
-1056.2708 -73.677231 59.135151 4281019177
-1053.751 -73.779587 59.339462 4281085739
-1051.2527 -73.697983 59.244709 4281019439
-1048.7291 -73.778969 59.170998 4280954415
-1046.2584 -73.732979 59.412731 4281019945
-1043.7476 -73.896873 59.679749 4280954156
-1042.2798 -73.779762 59.882248 4280559657
-1078.4448 -71.29129 58.25375 4280954161
-1076.1775 -71.29673 58.341476 4280625965
-1073.7158 -71.404739 58.317448 4281150766
-1071.2097 -71.255783 58.260712 4280757550
-1068.7803 -71.283112 58.492558 4280888365
-1066.2893 -71.19133 58.669357 4281084976
-1063.7783 -71.285797 58.719162 4280626223
-1061.2794 -71.218216 58.704044 4280757803
-1058.7292 -71.231857 59.095318 4281019181
-1056.238 -71.157112 59.323132 4280888107
-1053.7111 -71.303459 59.320591 4281216556
-1051.2306 -71.215118 59.349834 4281150764
-1048.7462 -71.317574 59.465862 4281019691
-1046.2019 -71.252205 59.499287 4281151284
-1043.783 -71.564507 59.727425 4281019946
-1042.0232 -71.444138 59.652687 4281018931
-1078.259 -68.662712 58.595558 4280953382
-1076.3171 -68.800667 58.719215 4280822309
-1073.804 -68.693153 58.744541 4280691247
-1071.3817 -68.718452 58.494747 4280626218
-1068.8116 -68.732834 58.771343 4280691245
-1066.3538 -68.726913 58.610058 4280823083
-1063.8101 -68.783348 58.90855 4280757282
-1061.3064 -68.811012 58.872948 4280757292
-1058.7473 -68.768913 58.880127 4280888107
-1056.1891 -68.743538 59.06831 4281084715
-1053.8235 -68.749741 59.191658 4280757296
-1051.2847 -68.761971 59.203773 4281085483
-1048.6974 -68.914154 59.474442 4280823343
-1046.2678 -68.78775 59.484665 4280954157
-1043.7692 -68.450127 59.623318 4281150252
-1042.0438 -68.612938 59.561665 4280625707
-1078.2356 -66.323387 58.383221 4280691751
-1076.3091 -66.281235 58.532505 4280167466
-1073.7853 -66.239128 58.473995 4280822062
-1071.1993 -66.263107 58.734051 4280757295
-1068.717 -66.23941 58.878387 4280298799
-1066.2345 -66.240746 58.812962 4280823087
-1063.7734 -66.228493 58.986217 4281150511
-1061.2903 -66.249489 59.224724 4280691760
-1058.7472 -66.244301 59.374588 4280888371
-1056.2633 -66.258461 59.327675 4280953648
-1053.7659 -66.22715 59.368378 4280954155
-1051.2958 -66.25589 59.514286 4280889136
-1048.3842 -66.377983 59.660763 4281084974
-1046.1417 -66.346603 59.624081 4281019441
-1043.5848 -66.223236 59.718819 4280954413
-1042.0374 -66.226555 59.842121 4280297763
-1078.1139 -63.767941 58.795456 4280560688
-1076.2638 -63.719837 58.577793 4280888367
-1073.7477 -63.706631 58.921436 4280822575
-1071.2772 -63.786396 59.047695 4280823089
-1068.7665 -63.744106 58.959202 4281019694
-1066.2688 -63.772491 58.912876 4280953899
-1063.7888 -63.896763 59.080204 4280954152
-1061.2506 -63.748234 59.351414 4280888879
-1058.7216 -63.790096 59.320057 4280691756
-1056.2292 -63.725483 59.267143 4280954152
-1053.7681 -63.717232 59.248985 4280692528
-1051.2025 -63.738621 59.570465 4281020208
-1048.7523 -63.715557 59.349884 4280888875
-1046.271 -63.74926 59.395164 4280757803
-1043.6914 -63.71587 59.401825 4280757544
-1041.8055 -63.75124 59.261925 4281084965
-1077.9446 -61.307903 58.882423 4280626729
-1076.2339 -61.264175 58.381058 4280822825
-1073.6793 -61.226463 58.83506 4281019947
-1071.2173 -61.254219 58.979183 4280953902
-1068.7501 -61.294628 58.922401 4280757293
-1066.2621 -61.118141 59.265621 4280757550
-1063.7737 -61.27042 59.37915 4280953899
-1061.191 -61.216541 59.149471 4281019948
-1058.7166 -61.248302 58.999966 4280757291
-1056.2073 -61.147976 58.823071 4281019436
-1053.6838 -61.306324 58.827705 4280692271
-1051.2485 -61.230629 59.237572 4281085745
-1048.7866 -61.24667 58.944725 4280954412
-1046.3074 -61.297009 59.136055 4280954161
-1043.8138 -61.231682 59.114994 4280888617
-1041.6759 -61.15686 59.176636 4280823085
-1077.8555 -58.864647 58.88546 4280888617
-1076.2693 -58.727676 58.636612 4280429615
-1073.7405 -58.733124 58.810829 4280822829
-1071.2874 -58.721569 58.394733 4281150509
-1068.7418 -58.6325 58.190372 4281019694
-1066.2809 -58.709797 58.051682 4281151025
-1063.759 -58.743244 58.268166 4280823086
-1061.2451 -58.787991 58.305279 4280888874
-1058.7411 -58.655846 58.273125 4280626220
-1056.2849 -58.788872 58.189861 4280757035
-1053.7527 -58.817875 58.549583 4280888364
-1051.2263 -58.644577 58.862999 4280692269
-1048.7408 -58.584038 58.737293 4281019948
-1046.228 -58.700684 58.916824 4280954157
-1043.724 -58.751808 58.924084 4281019440
-1041.5902 -58.646019 59.020199 4280888876
-1077.6832 -56.683666 58.016846 4281281580
-1076.1001 -56.538219 57.948986 4280757549
-1073.5603 -56.21645 57.935585 4281019947
-1071.2419 -56.258484 58.024719 4281150767
-1068.7664 -56.219738 57.872906 4280560940
-1066.1996 -56.146935 57.994698 4281019694
-1063.7838 -56.171051 57.966286 4281019690
-1061.1683 -56.247604 57.985092 4280036656
-1058.7424 -56.286102 58.114525 4280888362
-1056.1779 -56.351681 58.028896 4280757552
-1053.8186 -56.312893 58.485481 4281151278
-1051.3551 -56.30241 58.492172 4280823339
-1048.733 -56.223118 58.35228 4281085743
-1046.2802 -56.205334 58.411465 4280954668
-1043.8171 -56.338261 58.527664 4280954411
-1041.451 -56.215679 59.123672 4280954160
-1077.6427 -54.871765 57.712524 4280429342
-1076.0151 -53.497948 57.75428 4280756272
-1073.7826 -53.816353 57.693939 4281019439
-1071.267 -53.716694 57.999691 4280757805
-1068.6899 -53.837204 57.976429 4280823086
-1066.3112 -53.726585 57.977619 4280757804
-1063.7257 -53.742523 58.032028 4280954157
-1061.2628 -53.774929 58.044491 4281150509
-1058.72 -53.704865 58.422325 4281084455
-1056.249 -53.777538 58.309517 4280823084
-1053.739 -53.752789 58.601265 4281085486
-1051.202 -53.756226 58.771805 4281150766
-1048.7389 -53.640919 58.679047 4280954415
-1046.1968 -53.741405 58.751957 4281020462
-1043.7362 -53.742012 58.689407 4280561202
-1041.2035 -53.745388 58.987 4281019691
-1039.8735 -52.998592 58.856216 4280625689
-1076.011 -51.345192 57.756981 4280887854
-1073.7474 -51.330391 57.647095 4281019690
-1071.236 -51.237751 58.053928 4281216048
-1068.7025 -51.14838 57.993618 4281150767
-1066.2928 -51.206032 58.100479 4281151019
-1063.8517 -51.248474 58.209087 4280626479
-1061.2805 -51.259064 58.187756 4280757299
-1058.8187 -51.240513 58.304611 4281084965
-1056.2377 -51.346619 58.459705 4280429608
-1053.7601 -51.301964 58.595406 4281019694
-1051.2726 -51.231834 58.488445 4281282351
-1048.7472 -51.188583 58.537205 4281019694
-1046.2716 -51.27087 58.729813 4281216559
-1043.7661 -51.330395 58.578529 4280692273
-1041.2515 -51.201511 58.819 4280954420
-1039.9186 -51.173626 58.844307 4280889141
-1075.6449 -48.585419 57.708237 4281150763
-1073.9233 -48.816319 57.619228 4280954409
-1071.2483 -48.813099 57.873657 4280954417
-1068.7345 -48.783165 58.12611 4280822833
-1066.2664 -48.717026 58.033939 4280757552
-1063.7002 -48.793449 58.301464 4280757551
-1061.1978 -48.689671 58.386097 4280626986
-1058.6434 -48.698135 58.607014 4280691755
-1056.3105 -48.766449 58.863392 4280691759
-1053.7922 -48.715897 58.893112 4281020205
-1051.3303 -48.726952 58.908306 4281020209
-1048.7791 -48.697716 59.078724 4280954158
-1046.1962 -48.70496 59.071903 4281085488
-1043.741 -48.841015 59.169628 4281150765
-1041.2675 -48.732422 59.170898 4280823343
-1039.7936 -48.559326 59.437378 4280954665
-1075.7828 -46.273308 57.939323 4280625959
-1073.7332 -46.260757 57.741661 4280626732
-1071.2072 -46.297897 57.957634 4281020209
-1068.7649 -46.295162 58.03846 4280692014
-1066.2936 -46.256001 57.921112 4280888879
-1063.7855 -46.18771 57.977631 4280888621
-1061.2717 -46.28503 58.058159 4280954159
-1058.7524 -46.201633 58.240284 4281281828
-1056.2496 -46.250683 58.243149 4280757550
-1053.7772 -46.266521 58.189598 4281085231
-1051.2765 -46.247345 58.253593 4281150768
-1048.772 -46.356365 58.459709 4281151282
-1046.2012 -46.239563 58.618061 4281020206
-1043.7161 -46.3895 58.676292 4280692524
-1041.2621 -46.317638 58.666504 4280954414
-1039.538 -46.246685 58.953049 4280888098
-1075.7841 -43.948795 57.556377 4280626728
-1073.5417 -43.492435 57.696571 4280954414
-1071.2948 -43.869228 57.710491 4281216814
-1068.4747 -43.727844 57.897152 4281151013
-1066.2743 -43.688034 58.03233 4280823084
-1063.6865 -43.648018 58.182922 4280888616
-1061.1807 -43.784248 58.132832 4281019949
-1058.786 -43.808578 58.460777 4280757805
-1056.2902 -43.728848 58.433041 4280692010
-1053.7887 -43.629871 58.473263 4281020205
-1051.3071 -43.706364 58.399773 4281019947
-1048.788 -43.81424 58.451839 4280823598
-1046.2953 -43.699768 58.653519 4281019953
-1043.7639 -43.942902 58.735123 4280954156
-1041.2841 -43.882885 58.551086 4280889387
-1039.3448 -43.661037 58.921936 4280233507
-1075.5795 -41.230873 58.162838 4280626475
-1073.7834 -41.237488 58.058456 4280888362
-1071.2435 -41.301502 58.110458 4281019949
-1068.7158 -41.264187 58.082287 4280626991
-1066.2406 -41.262691 58.162014 4280757295
-1063.7438 -41.230976 58.276161 4280757291
-1061.2001 -41.334457 58.319927 4280888878
-1058.7466 -41.171341 58.783875 4280691503
-1056.2823 -41.312233 58.804626 4280888620
-1053.7719 -41.211128 58.697731 4281085999
-1051.2307 -41.289627 58.765968 4280954159
-1048.7369 -41.23312 58.709881 4280954669
-1046.1979 -41.185352 59.181648 4281085740
-1043.8636 -41.243206 59.451618 4280626986
-1041.3087 -41.297153 58.995312 4280954668
-1039.2812 -41.191372 58.695339 4281085738
-1075.332 -38.907608 57.636292 4280756780
-1073.5659 -38.936344 57.882957 4280954417
-1071.1245 -38.728893 57.972099 4280889136
-1068.799 -38.800297 58.00597 4280430124
-1066.2914 -38.763569 58.026508 4281019695
-1063.7145 -38.653107 58.559124 4280888365
-1061.2799 -38.796097 58.364819 4280823597
-1058.7664 -38.719223 58.539024 4280822572
-1056.2004 -38.794071 58.649193 4280954411
-1053.718 -38.755749 58.673729 4281085743
-1051.235 -38.68951 58.531384 4281085742
-1048.7531 -38.856716 58.311226 4281282602
-1046.2097 -38.788841 58.189079 4281217069
-1043.6962 -39.012997 58.181458 4281020206
-1041.327 -38.867657 58.045673 4281019698
-1039.2163 -38.693008 58.223801 4281085489
-1075.3293 -36.233974 57.974064 4280953895
-1073.8319 -36.203087 57.927017 4280954155
-1070.7559 -36.281277 57.993481 4280823342
-1068.6708 -36.289574 57.890633 4280823596
-1066.208 -36.267132 58.081722 4280954414
-1063.7388 -36.242775 58.059261 4280692015
-1061.2181 -36.29805 58.223663 4280954153
-1058.7241 -36.356579 58.258167 4280692011
-1056.2684 -36.225044 58.312748 4280692264
-1053.7583 -36.166542 58.512871 4280954926
-1051.222 -36.222294 58.380722 4281151021
-1048.7488 -36.352947 58.268364 4280954673
-1046.1454 -36.373856 57.972122 4281216558
-1043.7792 -36.337929 58.020878 4281217328
-1041.2498 -36.288136 58.03157 4281282100
-1039.0775 -36.36739 58.27203 4280889134
-1075.1271 -34.390659 58.04245 4280888601
-1073.449 -33.934586 57.887989 4280625965
-1071.0571 -33.762211 57.971413 4280692018
-1068.8611 -34.357868 57.746674 4281413166
-1065.8606 -33.973217 57.852264 4281216302
-1063.9236 -33.822433 57.731133 4280888365
-1061.1956 -33.926743 57.959522 4280823087
-1058.7476 -33.746609 57.921638 4281019693
-1056.4846 -34.025497 57.914566 4281020204
-1054.411 -34.470695 57.761997 4280692535
-1048.5823 -34.989426 57.565918 4280627256
-1046.7554 -34.943008 57.502869 4281217328
-1042.7212 -34.992203 57.88446 4281283385
-1041.2274 -34.954933 57.832771 4281412656
-1039.0697 -34.899628 57.758423 4281281836
-1075.1329 -32.335892 57.933716 4281281315
-1073.4688 -31.026384 57.846523 4281216559
-1071.2118 -31.189753 57.744423 4280954674
-1068.6924 -31.131601 57.72319 4281151020
-1066.21 -31.260134 57.772205 4281020458
-1063.8376 -31.174389 57.862362 4281085484
-1061.5023 -31.325277 57.781048 4281151018
-1059.1522 -31.702642 57.851585 4280626479
-1057.2952 -32.215012 57.805725 4280167981
-1048.6079 -30.784916 57.958138 4280889903
-1046.6399 -30.561455 57.930702 4281019952
-1043.5957 -30.530411 57.84267 4280823346
-1041.1472 -30.781372 57.757305 4280889646
-1038.3713 -30.682356 57.72295 4281151282
-1073.329 -29.097752 57.830864 4281216558
-1071.3817 -29.006241 57.698372 4281151283
-1068.7288 -29.113895 57.721588 4281216560
-1066.3763 -29.042206 57.689674 4280954154
-1063.6046 -28.792898 57.857822 4281085740
-1061.49 -29.4485 57.737846 4281216044
-1049.1703 -29.640192 57.993492 4280888885
-1046.182 -29.597534 57.890747 4281871149
-1043.915 -29.485266 57.811172 4280954160
-1041.2731 -29.308517 57.72234 4280889392
-1037.6647 -29.275665 57.594055 4281019182
-1037.2321 -28.879272 57.571533 4280756277
-1073.2286 -26.13867 58.042221 4280954670
-1071.5366 -25.938467 57.901932 4281217070
-1069.0686 -25.679428 57.722458 4281020466
-1066.6503 -25.405008 57.635231 4280954418
-1063.2184 -26.745943 57.628918 4280823597
-1061.9452 -27.348862 57.514984 4281610794
-1053.6362 -25.636978 57.611038 4281479471
-1048.6385 -25.675486 57.566486 4281021225
-1046.5154 -25.785044 57.977524 4280955177
-1042.6398 -25.191658 57.70343 4281481009
-1040.8098 -25.310898 57.643311 4281151781
-1038.5812 -25.881365 57.834629 4281151537
-1037.1519 -25.219452 57.600464 4281085486
-1073.2056 -23.874516 58.150558 4280823087
-1071.2644 -23.685511 58.279026 4280757812
-1068.7567 -23.736193 58.160202 4281085486
-1066.5236 -23.873886 57.990997 4280888883
-1061.8424 -23.351742 57.797016 4280561458
-1053.6683 -24.642021 57.525635 4280890677
-1045.9839 -24.143063 57.845886 4280955441
-1043.7115 -23.824636 57.853851 4281151533
-1041.0658 -23.971272 57.624359 4281020467
-1038.7185 -23.951939 57.703407 4281086256
-1037.3065 -23.854591 57.699875 4280823855
-1073.0209 -21.366156 57.705242 4280757546
-1071.2523 -21.280149 57.775658 4280954415
-1068.9083 -21.134485 57.738811 4281217072
-1067.0624 -22.321157 57.585491 4281019696
-1061.8718 -22.188835 57.778839 4281218091
-1058.3184 -21.077707 57.61042 4281151537
-1042.9438 -21.984388 57.647564 4280758565
-1041.1938 -20.574129 57.548122 4281414196
-1037.7251 -21.740929 57.731918 4281216558
-1037.3933 -21.732597 57.720444 4280299054
-1073.0819 -18.766644 57.967541 4281216556
-1071.3164 -18.813274 57.669579 4280954671
-1068.7338 -18.66176 57.719826 4281217078
-1067.1694 -18.166901 57.503235 4281872696
-1063.4763 -18.072144 57.724121 4281151544
-1061.2679 -18.043137 57.669697 4281217583
-1058.6611 -18.722206 57.590591 4281085735
-1056.7621 -18.859896 57.562378 4281086254
-1050.5874 -18.318401 57.766163 4281086768
-1048.9375 -17.946817 57.97031 4281152044
-1046.3229 -18.095726 58.0065 4281414448
-1043.7217 -18.257189 57.824184 4281151279
-1041.1979 -18.393255 58.06493 4281348405
-1038.6351 -18.080528 57.956947 4281020718
-1037.0526 -18.068939 58.174961 4280757027
-1072.8173 -16.699867 57.558933 4281086005
-1071.061 -16.268353 57.602867 4281282862
-1069.3806 -16.38455 57.574917 4281283120
-1061.3341 -17.353794 57.639282 4280955440
-1058.8983 -17.292732 57.556011 4280954157
-1055.1707 -17.199417 57.614075 4281874492
-1050.4843 -17.245256 57.806396 4281479466
-1048.8942 -16.586596 57.85302 4281480245
