# .PCD v0.7 - Point Cloud Data file format
VERSION 0.7
FIELDS x y z rgba
SIZE 4 4 4 4
TYPE F F F U
COUNT 1 1 1 1
WIDTH 1002
HEIGHT 1
VIEWPOINT 0 0 0 1 0 0 0
POINTS 1002
DATA ascii
-971.37903 57.437248 29.936035 4278984460
-971.39551 58.047924 28.635721 4279180813
-971.82568 61.522697 29.866882 4280164096
-971.81323 61.102707 31.58963 4280228864
-978.21527 65.23436 32.408295 4280227345
-975.94739 65.608185 31.836323 4280422158
-974.13733 65.877945 31.523329 4280425491
-971.74988 58.767181 34.790516 4279769605
-971.7923 60.383224 34.013897 4280098075
-980.21802 64.612823 34.717896 4280425728
-978.19116 64.803413 34.022308 4280491036
-976.65656 64.636932 34.241985 4280620560
-975.58545 65.168564 33.796753 4280290315
-973.95648 65.24659 33.79657 4280556055
-972.76324 45.622192 37.163757 4279178240
-971.7439 46.248482 36.932674 4279635978
-973.12219 49.73484 37.477814 4280293124
-971.12732 47.839935 37.448914 4279637765
-972.8941 51.283798 36.963844 4279832841
-971.79327 51.139782 36.919254 4279375112
-972.97607 53.801121 36.265759 4279506192
-971.97247 53.657238 36.348923 4279571211
-973.10309 56.429295 36.051884 4279374869
-972.05273 56.21843 36.13636 4279900682
-973.23846 58.38253 36.518494 4280031514
-972.11176 58.250168 36.099697 4279639057
-975.21936 61.931057 36.09877 4281212444
-973.77521 61.424114 37.031574 4280228107
-972.32599 61.514404 37.255817 4280032524
-980.1897 64.186615 36.39418 4280556581
-978.17487 63.973751 36.394924 4280492046
-975.86072 63.936348 36.005074 4280030733
-973.86578 63.651752 36.027687 4280359183
-972.79205 46.779449 37.56456 4278980873
-972.46704 47.298386 37.505798 4278913045
-972.72125 48.817226 37.656021 4279505937
-971.77802 48.645195 37.627396 4279111691
-971.18353 50.024178 37.578552 4280093184
-973.30603 59.262722 37.809746 4280358930
-972.29797 59.516968 37.773846 4279964431
-1003.1681 61.632 38.977947 4279967752
-972.97205 60.361343 37.76413 4280421639
-972.24591 60.627625 37.799988 4279835412
-980.31909 63.625748 38.829041 4279706368
-979.30682 63.578766 38.480549 4279378442
-976.94135 63.50803 38.06604 4280426506
-1008.0963 60.806114 41.263966 4280229149
-1005.8744 61.136761 41.276917 4279900958
-1003.5274 61.246944 40.888611 4280624152
-1001.5045 61.473671 40.934418 4280491276
-992.41888 62.194035 40.400452 4281276932
-989.01184 62.37788 42.083984 4280751623
-980.61377 63.076538 41.492676 4278788625
-974.39148 57.374939 44.216553 4280690194
-1003.2491 60.716736 43.487823 4280555291
-992.33179 61.600994 43.345276 4280688384
-989.53003 61.631756 43.237347 4279898136
-984.92957 61.881821 43.718506 4280557091
-993.06097 60.486465 46.652435 4281808443
-989.5863 61.178394 45.312744 4281017900
-1001.0748 59.544334 49.463921 4281743931
-999.83801 59.591301 48.970123 4281743411
-989.17004 60.512886 48.339539 4281612862
-1010.3793 58.368561 52.073471 4282202431
-1008.5059 58.685833 51.849934 4281809465
-1001.3694 59.275036 51.835205 4281809209
-998.71808 59.307796 52.353386 4281875005
-996.41821 59.653385 51.518921 4281809473
-993.4043 59.77021 52.092396 4281677887
-988.48767 59.913906 52.348907 4281481785
-986.742 59.956352 52.257935 4282006073
-993.6026 60.045353 51.14505 4281547069
-990.93848 60.112247 51.052826 4281745220
-988.52094 60.176468 51.047546 4281415738
-986.48907 60.244785 51.320057 4281743927
-983.75861 60.358837 52.027733 4281940288
-982.18494 60.462986 51.617859 4281809727
-1011.4065 57.418079 54.565613 4281611582
-1009.8922 57.489128 54.973389 4282071357
-1010.8767 57.977341 53.867363 4282070844
-1008.5526 58.178143 53.947506 4282137913
-1006.2232 58.413387 53.848087 4281874750
-1003.6945 58.712849 54.507256 4281874491
-1001.2967 58.663155 53.445362 4281743156
-998.78101 58.687637 53.510338 4281612862
-996.05377 59.044231 54.19186 4281546808
-994.19238 59.160042 53.807343 4281940800
-990.85822 59.605335 53.50552 4281678391
-988.44818 59.497364 53.7705 4281874486
-986.55426 59.561378 53.72319 4281743419
-983.45972 59.745079 54.335213 4281940022
-982.05151 59.864727 54.312153 4281678390
-985.2312 60.047028 53.137207 4280957483
-983.73401 60.091846 53.227295 4282137404
-981.31439 60.259361 53.328899 4281743420
-978.75262 60.404491 53.395256 4281809467
-976.55304 60.32201 53.998783 4281677369
-1001.3907 -32.602821 57.424194 4281478445
-1002.1146 -30.466499 57.270172 4281086772
-973.38123 -31.379913 57.497314 4281348149
-977.78613 -27.683449 57.405151 4281151794
-977.45496 -27.674675 57.393707 4281086521
-1006.0485 -12.806328 57.17395 4281284158
-998.60339 -10.441424 57.377708 4281217582
-997.17761 -10.387838 57.337585 4280693294
-992.4917 -10.477722 57.179688 4281478454
-1002.9247 -8.0107422 57.48431 4281216299
-1001.5598 -8.5759392 57.449474 4280889140
-998.9353 -8.9601049 57.344978 4281086256
-997.09705 -9.3326778 57.313038 4281020462
-992.51733 -9.4835014 57.160034 4281152302
-991.78552 -7.9083366 57.473625 4281282873
-983.31219 -7.9047418 57.365147 4280954931
-980.99347 -8.8122301 57.37402 4281020462
-979.7738 -8.9104757 57.336037 4281348140
-971.34161 -7.6314087 57.419922 4281348409
-1003.1162 -7.0775089 57.471584 4280823345
-1001.6642 -7.092618 57.422386 4281018930
-999.70581 -7.1759911 57.3573 4281151269
-991.75226 -6.6466737 57.431782 4281216823
-983.73248 -6.9434285 57.300888 4281019695
-969.71893 -6.345314 57.179199 4280691999
-1003.1263 -3.1155529 57.390015 4281479222
-1000.9681 -3.2277603 57.318848 4281347632
-999.64276 -3.1944911 57.272968 4281086262
-995.82129 -3.10127 57.487499 4281151533
-1006.4462 -0.51874191 57.427246 4281151794
-1004.983 -1.8352242 57.426834 4281479737
-980.42346 -2.3848038 57.271729 4280430119
-1007.7408 2.2417984 57.436584 4281545766
-1005.9971 1.3956002 57.339069 4281217074
-1004.1524 1.4237788 57.10709 4281151797
-1002.2733 2.3793068 57.247375 4281085736
-998.63556 1.8404617 57.212608 4281086004
-997.4563 2.4920807 57.451782 4281742381
-993.02747 1.607812 57.413975 4280889391
-1007.7847 3.7154522 57.275925 4281150777
-1006.4057 3.587893 57.298782 4281282611
-1004.3136 3.4617641 57.044884 4281216819
-1001.924 3.3834701 57.175167 4281282093
-998.28973 3.8989685 57.399368 4281085739
-996.45032 4.211072 57.348564 4281020208
-994.35815 4.1001673 57.440434 4281151530
-990.81311 4.7113695 57.399097 4280954928
-989.69104 3.6769524 57.462708 4280756793
-1007.66 6.2035894 57.207092 4281348396
-1006.6213 6.2257595 57.26981 4281152560
-1004.5169 5.3970871 57.003418 4280955197
-1002.176 5.0345001 57.18927 4281873471
-998.14301 6.2164555 57.354404 4281085746
-996.28058 5.7396364 57.34301 4281151536
-994.24091 6.3857222 57.311565 4280626992
-992.24695 6.4302864 57.49292 4281153324
-989.23096 5.0166454 57.318756 4281348913
-986.57977 5.0810013 57.327637 4281609266
-1007.5463 7.5536804 57.320068 4281545775
-1005.8768 8.8764143 57.194466 4281479985
-1003.5474 9.1972914 57.331318 4281413933
-1001.4534 9.6861439 57.439301 4280824104
-998.15936 8.3777876 57.387173 4280692274
-993.89606 8.106205 57.3526 4281479474
-1007.9365 11.375687 56.65918 4280889647
-1006.4524 11.268528 57.171261 4281086519
-1003.4182 11.485422 57.446602 4280954673
-1001.6582 11.173958 57.394958 4280889651
-995.18805 11.899817 57.405476 4281217335
-994.48773 11.453486 57.367836 4280823856
-1008.0604 13.787041 56.718807 4281610288
-1006.2281 13.634391 56.751507 4281151795
-1003.735 13.733747 56.854404 4281217066
-1001.3419 13.818577 57.045494 4281151540
-998.73755 13.730419 57.347748 4281020463
-995.83807 13.444022 57.393551 4281348403
-993.71912 13.918573 57.218716 4280955184
-991.31451 14.244568 57.219028 4281217072
-989.07617 14.330907 57.144554 4281020458
-1008.1613 16.440649 57.003719 4281217314
-1006.316 16.210829 56.515488 4281282864
-1003.7891 16.266453 57.092171 4281020207
-1001.2652 16.213093 56.863018 4281085744
-998.76514 16.259872 57.055168 4280889645
-996.20203 16.447979 57.167019 4281283376
-993.7569 16.244949 56.944725 4281086003
-991.15411 16.196451 57.28117 4281282867
-988.71265 16.489223 57.105972 4281282349
-986.32806 16.848328 57.231335 4281085491
-984.23663 17.226151 57.345642 4280364844
-1008.2339 18.690289 57.008327 4281216299
-1006.1373 18.40554 56.727112 4281151538
-1003.6942 18.748314 56.857212 4281151276
-1001.2081 18.821781 56.793571 4280824113
-998.71863 18.704433 56.695183 4281151278
-996.24445 18.755863 56.907803 4281282865
-993.71466 18.364471 56.872028 4281217585
-991.47833 18.754261 57.299728 4281479474
-988.58118 18.753283 56.886925 4280954929
-986.14429 18.621651 57.124207 4280954672
-983.87579 18.71517 57.348419 4281020463
-982.06183 18.598995 57.408676 4281281843
-979.31665 19.128191 57.262932 4281479727
-976.34741 19.571278 57.193848 4280430637
-973.52856 19.46118 57.469986 4281217326
-1008.6481 21.537445 57.437946 4281216815
-1003.6403 21.236736 57.282631 4281216814
-1001.5907 21.05826 57.257072 4281086255
-998.75378 20.578695 57.050827 4281151282
-996.27911 20.666866 57.188431 4281413682
-993.80914 21.261667 57.19035 4280954931
-991.17413 21.458258 57.259239 4281086004
-988.76953 20.938007 57.147469 4280758065
-986.14423 20.532307 57.306744 4280889636
-983.79205 21.236588 57.138771 4281151792
-981.04132 21.77603 57.199802 4281218102
-978.95856 20.832031 57.206615 4280955186
-976.32751 21.418852 57.337563 4281087026
-973.60596 21.391441 57.432816 4281217839
-972.43054 21.806746 57.384106 4281217330
-1008.5925 23.868788 57.061489 4281085488
-1006.1943 24.112478 57.350536 4280889908
-1003.6163 23.878637 57.307327 4281282606
-1001.5501 23.773151 57.323368 4280954930
-998.75775 23.431812 57.288162 4281217073
-995.60291 23.323259 57.105019 4281020966
-992.99945 23.475344 57.03392 4280693301
-991.25568 23.651989 57.246307 4281283376
-988.66736 23.875391 57.004635 4281217077
-986.65656 24.104132 57.3372 4281151281
-983.67645 23.748417 56.893158 4281152049
-981.08008 23.235989 57.089722 4281348655
-977.97375 24.979229 57.483124 4281414458
-975.82959 23.757156 57.459682 4281152304
-973.77893 23.779858 57.39267 4281348657
-972.47308 23.460035 57.392776 4281217589
-1008.6251 26.359781 57.220631 4281413935
-1006.2542 26.290667 57.141258 4281282355
-1003.7068 26.213728 57.063915 4281282099
-1001.3289 26.348383 57.142487 4281151537
-998.74835 26.43119 57.216248 4281217072
-994.50354 27.153141 57.173595 4281152317
-991.49243 26.193983 57.273708 4281217336
-988.6333 26.292278 57.142845 4281217072
-986.4278 25.71582 57.355339 4281216813
-984.13245 26.045124 57.1861 4280954933
-978.18768 26.419523 57.400864 4281217848
-976.15234 25.706465 57.430416 4281282855
-973.77942 26.198393 57.358665 4281283381
-1008.7773 28.869444 56.526062 4281216557
-1006.2745 28.906843 56.888458 4281282864
-1003.7729 28.684444 56.954964 4281216818
-1001.28 28.753225 57.100571 4281085999
-998.83154 28.848719 57.085308 4281151536
-996.73352 29.146023 57.03838 4281610288
-993.901 28.819979 56.976639 4281413684
-991.271 28.984861 57.167995 4281479985
-988.91016 28.965298 57.160103 4281085486
-986.69116 29.168013 57.005215 4280954929
-983.60162 29.473331 57.167519 4281282865
-981.03235 29.513676 57.173523 4281152560
-979.19659 28.756872 57.451366 4281152048
-976.33124 28.923765 57.262085 4281282864
-973.88007 28.690474 57.317593 4281283378
-1008.761 31.348461 56.68391 4281151539
-1006.2895 31.299204 56.896858 4281348662
-1003.784 31.307398 56.863152 4281020720
-1001.2565 31.205509 56.98632 4281217332
-998.75635 31.177544 57.034126 4281282864
-996.18915 31.188858 56.837952 4281282867
-994.07214 31.126183 57.036716 4281086259
-991.20764 31.201084 57.022125 4281479729
-988.89252 31.088427 57.214195 4281413681
-986.34698 31.247715 57.230461 4281085996
-983.49579 31.220209 56.74102 4281020722
-980.97668 31.342331 56.975643 4281217839
-979.41309 31.268888 56.952744 4281282865
-976.13647 31.176929 57.326405 4281152050
-974.05865 31.137896 57.218113 4281348400
-1010.238 34.152538 56.513256 4281282870
-1008.7252 33.840309 56.804649 4280955698
-1006.2197 33.773712 57.05674 4281413432
-1003.6899 33.750462 56.945179 4281085746
-1001.2471 33.733959 56.874626 4281020725
-999.01312 33.964184 56.945351 4281348147
-995.91174 33.700478 57.023762 4280955185
-993.71869 34.057579 57.391273 4280823607
-991.30499 33.803886 57.296638 4281348660
-989.18646 33.992657 57.268009 4281086256
-986.89563 34.063141 56.799206 4281020721
-983.25049 32.980789 57.097332 4281282615
-980.83179 33.03117 57.219559 4281217330
-978.90985 33.858341 57.088303 4281349174
-975.86017 33.174625 57.395287 4281020722
-974.26245 33.625492 57.297626 4281151796
-1010.2899 36.310902 56.552002 4281283637
-1008.7601 36.202686 56.28199 4281414710
-1006.2944 36.203297 56.164886 4281283125
-1003.8035 36.270229 56.310925 4281348653
-1001.2817 36.272243 56.803505 4281217840
-998.73737 36.18779 56.832947 4281348396
-996.16748 36.28928 56.9188 4281479474
-993.75525 36.232655 57.044067 4281348913
-991.32251 36.236832 57.060005 4281348403
-988.74823 36.198376 57.06953 4281282608
-986.3653 36.377525 56.935898 4280823598
-983.60004 36.398808 57.348827 4280955185
-980.22235 37.38475 57.493042 4281152568
-978.83624 36.230015 57.341415 4281479988
-975.80444 36.626293 57.345871 4281413683
-974.34283 36.483456 57.312977 4281414457
-1010.2832 38.883972 56.392857 4281479479
-1008.7475 38.72097 56.64817 4281348149
-1006.1983 38.728001 56.558403 4281348660
-1003.712 38.800209 56.484844 4281086002
-1001.1943 38.731884 56.703335 4281151795
-998.73602 38.789207 56.378788 4281348657
-996.29803 38.77145 56.68885 4281217844
-993.72925 38.753056 56.916779 4281086004
-991.35254 38.788269 57.101265 4281348913
-988.73688 38.818317 56.898987 4281086515
-986.30121 38.785351 56.930157 4280954928
-983.72882 38.684479 57.184425 4281020211
-981.13623 39.044693 57.124702 4281413170
-978.85388 38.853359 57.208382 4280955701
-976.09113 38.904758 57.260128 4281217589
-974.35809 38.805283 57.181076 4281218099
-1010.4756 41.037479 56.51609 4281086263
-1008.658 41.139267 57.044353 4281217330
-1006.2444 41.231426 56.949493 4281479989
-1003.7611 41.289318 56.840576 4281217327
-1001.2529 41.329315 57.065605 4281086261
-998.80469 41.252544 56.797913 4281217329
-996.25677 41.197979 56.655048 4281283120
-993.79163 41.007168 56.922451 4281151794
-991.31647 41.216805 56.976715 4281283379
-988.69391 41.245476 56.614449 4281217582
-986.19269 41.189922 56.56039 4280889651
-983.66089 41.240868 56.789314 4281151794
-981.23029 41.281376 56.894714 4281217845
-978.72314 41.199326 56.868969 4281414199
-976.24872 41.388847 56.638462 4281020723
-974.4234 41.278259 56.799984 4281479989
-1010.549 43.847122 56.88821 4281217591
-1008.8354 43.896275 56.858303 4281413936
-1006.2649 43.686993 56.893291 4281283124
-1003.7455 43.813557 56.891788 4281020976
-1001.2145 43.726871 56.950504 4281217329
-998.78754 43.834309 56.928631 4281151795
-996.40228 43.841045 56.981255 4281414196
-993.89441 44.874527 57.007915 4281610542
-990.63916 44.812885 57.22831 4281086771
-988.74951 43.745956 57.240505 4281151532
-986.24109 43.436024 57.221237 4281151539
-983.75629 43.755226 57.154087 4281217841
-981.2522 43.749596 57.138237 4281283377
-978.85413 43.689644 56.897816 4281283382
-976.26178 43.880577 56.457703 4281283379
-974.48499 43.551197 56.098186 4281218101
-1010.6886 46.285801 56.060127 4280890162
-1008.6949 46.185787 56.119484 4281217588
-1006.2189 46.218788 56.566315 4280955703
-1003.7247 46.28093 56.717632 4281152306
-1001.2759 46.263458 56.454582 4281414452
-998.776 46.282558 56.192219 4281413936
-996.25751 46.27985 56.119698 4281283124
-993.75409 46.257408 56.448982 4281282870
-991.2804 46.313675 56.702545 4281479732
-988.82184 46.314098 56.532986 4281283114
-986.29181 46.349316 56.898582 4280824368
-983.78009 46.164932 57.160488 4281152051
-981.22955 46.30146 57.076283 4281479474
-979.03375 46.273346 57.13813 4281479987
-976.22882 46.459049 57.052326 4281348661
-974.70654 45.912849 57.120316 4281415480
-1010.9222 48.752304 55.601967 4281414192
-1008.8289 48.734928 56.008205 4281283121
-1006.2929 48.707294 56.276451 4281414451
-1003.8171 48.712986 55.901215 4281151795
-1001.3104 48.728607 56.537666 4281348657
-998.76123 48.676468 56.75317 4281479479
-996.1723 48.805092 56.386784 4281020983
-993.75751 48.768803 56.283424 4281414451
-991.20715 48.790516 56.584881 4281414708
-988.70758 48.764683 56.468845 4281413684
-986.19983 48.75742 56.559151 4281217332
-983.7226 48.683117 56.71706 4281283125
-981.23688 48.750423 56.938995 4281414453
-978.79584 48.755882 57.027439 4281283381
-976.52026 48.889225 57.164883 4281217594
-974.79144 49.213154 57.10783 4281413678
-1010.9178 51.391769 55.879677 4281020980
-1008.7505 51.192173 56.043167 4281414195
-1006.2156 51.20916 56.550312 4281545782
-1003.7286 51.209461 56.701736 4281348146
-1001.3713 51.299526 57.099415 4281283123
-998.62036 51.258236 57.12619 4281545523
-996.25153 51.285122 56.795864 4281283379
-993.69916 51.354645 56.814381 4281348661
-991.25922 51.25156 56.125412 4281152818
-988.78271 51.218884 56.496212 4281152562
-986.2746 51.283203 56.68716 4281349172
-983.789 51.121315 56.434608 4281283120
-981.30426 51.213699 56.587402 4281283126
-978.75171 51.327534 56.95068 4281414453
-976.29065 51.154209 56.880424 4281414195
-974.84326 51.205894 56.97216 4281676857
-1010.9261 53.795231 55.797199 4281217843
-1008.7468 53.719528 55.774513 4281480244
-1006.2715 53.741611 56.087933 4281479992
-1003.7468 53.825886 55.937111 4281479988
-1001.2593 53.71114 56.332062 4281283634
-998.78088 53.711926 56.3368 4281414710
-996.30048 53.807293 56.139854 4281479988
-993.76599 53.879654 56.208687 4281480248
-991.28204 53.694698 55.968502 4281414963
-988.72046 53.729897 56.469547 4281414707
-986.26263 53.694153 56.470821 4281283381
-983.69495 53.737038 56.114185 4281283381
-981.24316 53.780411 56.523563 4281218101
-978.71643 53.769016 56.908806 4281611320
-976.21613 53.707996 56.556141 4281349172
-974.90997 53.718761 56.525345 4281217850
-1010.9393 56.178276 55.764526 4281217589
-1008.7159 56.277145 56.05875 4281481017
-1006.2187 56.199257 56.29063 4281414968
-1003.7844 56.386703 56.305584 4281348920
-1001.2625 56.245544 56.154377 4281349424
-998.70386 56.209927 56.181374 4281414965
-996.23016 56.237457 55.874603 4281348918
-993.68878 56.286148 56.116009 4281414965
-991.21771 56.194332 56.162441 4281349689
-988.7309 56.280373 56.251129 4281283896
-986.27167 56.262714 56.494259 4281348919
-983.75812 56.243866 56.159973 4281283382
-981.23352 56.249043 56.280781 4281414454
-978.78314 56.269852 56.625198 4281545782
-976.30597 56.258587 56.55798 4281348658
-974.96832 56.01952 56.681488 4280626207
-1008.2102 57.643658 55.498756 4281677882
-1006.4103 57.719585 55.668732 4281809733
-1003.8314 57.963287 55.866989 4281742905
-1001.2355 57.922504 55.601963 4281545786
-998.73633 57.833858 55.78426 4281283901
-996.39398 57.987614 55.518238 4281349687
-993.76398 58.061432 55.750114 4281349434
-991.23962 58.243477 55.977638 4281481019
-988.78247 58.37112 55.868156 4281742648
-986.23096 58.419357 55.954025 4281415223
-983.82343 58.505318 56.302017 4281677365
-981.20251 58.7649 56.383038 4281742393
-978.79218 58.778812 56.395206 4281414970
-976.31891 58.669979 55.980743 4281480499
-981.03809 60.03019 56.119385 4282202418
-978.22913 60.017284 55.170593 4281940263
-976.82172 60.140648 55.329849 4282005817
-1003.1561 -38.003643 59.135139 4281217839
-1001.2057 -38.315395 59.499847 4281217590
-998.69226 -38.229713 59.291397 4281545524
-996.03394 -38.091755 58.615711 4281546293
-993.63641 -37.79385 58.793015 4281873716
-991.31555 -38.03228 58.396515 4281545776
-988.7934 -37.880138 57.933327 4281546036
-986.64545 -37.708397 58.470585 4281479735
-984.46405 -37.714909 59.098553 4281088049
-982.17157 -37.530975 57.799255 4281808682
-1003.7562 -36.10714 59.375999 4281349172
-1001.2178 -36.142281 59.631325 4281413428
-998.66095 -36.299931 59.67318 4281479224
-996.3053 -36.23138 59.760845 4281413943
-993.83691 -36.265686 59.854713 4281152311
-991.03101 -36.518829 59.283443 4281152051
-988.63708 -36.623615 58.88517 4281087028
-986.4472 -36.420292 59.589233 4281479987
-983.98334 -36.684963 59.290272 4281282867
-980.94031 -36.372833 59.627048 4281283381
-978.59766 -36.023201 59.825714 4281283126
-976.06085 -35.91452 59.953777 4281546545
-973.75128 -35.74733 59.928871 4281546036
-971.28033 -35.454819 59.805447 4281611319
-969.25598 -35.235989 59.475716 4281544760
-1003.7389 -33.81525 58.86705 4281086001
-1001.2943 -33.817894 58.653172 4281151536
-998.7915 -33.675591 59.211582 4281348147
-996.27875 -33.789825 59.185429 4280955186
-993.69055 -33.710175 59.180977 4280955190
-991.25372 -33.83807 59.121479 4281152052
-988.68927 -33.635891 59.034771 4281283382
-986.245 -33.634701 58.999729 4281347890
-983.78204 -33.742855 59.249504 4281020462
-981.12244 -33.447865 59.677811 4281283117
-978.66565 -33.723053 59.589153 4281545521
-976.26544 -33.698841 59.596405 4281545011
-973.78528 -33.550545 59.217182 4281414196
-971.0993 -33.681156 59.048912 4281414446
-969.10016 -33.799606 59.178959 4281152050
-1003.7128 -31.367043 58.756725 4281282863
-1001.1781 -31.375225 58.296154 4281217331
-998.69055 -31.390804 58.311581 4281151793
-996.23871 -31.339813 58.531536 4281020975
-993.74799 -31.217505 58.76302 4281217588
-991.30249 -31.245924 58.650303 4281217331
-988.78229 -31.260876 58.475788 4281282868
-986.27771 -31.222786 58.471718 4281217076
-983.84656 -31.299971 58.949356 4281282351
-981.30457 -31.166203 59.322212 4281085751
-978.79163 -31.345451 59.426727 4281151540
-976.20581 -31.23217 59.211967 4281217589
-973.745 -31.255474 58.269966 4281282868
-971.23657 -31.329809 58.296574 4281348917
-969.07629 -31.249445 58.42992 4280955440
-1005.2659 -27.697861 59.022766 4281742404
-1003.7412 -28.798611 59.144264 4281086001
-1001.2258 -28.715176 59.146885 4281020208
-998.77545 -28.691128 59.026066 4281282097
-996.28326 -28.796967 59.134377 4280889390
-993.79938 -28.725885 59.153687 4281282863
-991.21124 -28.720541 59.03936 4281020723
-988.77649 -28.806889 58.935879 4281282609
-986.18823 -28.701153 58.847923 4281086000
-983.67877 -28.822212 59.096222 4281151535
-981.17419 -28.751059 59.169624 4281413422
-978.75122 -28.748198 59.139584 4281086511
-976.25238 -28.807522 58.898312 4281020470
-973.75244 -28.753904 58.785057 4281217840
-971.29956 -28.735214 58.762314 4281348656
-969.20319 -28.722622 58.701591 4281217590
-1005.2722 -26.097565 58.944038 4281544760
-1003.8347 -26.281719 58.809822 4281151282
-1001.2802 -26.311516 58.712414 4281151791
-998.77258 -26.322124 58.846264 4281216818
-996.20044 -26.452312 59.052467 4281151280
-993.71796 -26.401335 59.181118 4281217327
-991.21143 -26.318027 59.09549 4281348400
-988.72906 -26.275274 59.061752 4281217322
-986.24939 -26.168812 59.015667 4280954926
-983.73633 -26.487206 58.943443 4281217073
-981.28326 -26.406534 58.571968 4281151792
-978.71747 -26.21471 58.547428 4281283119
-976.23651 -26.336512 58.809254 4281348405
-973.74286 -26.25835 58.7421 4281348659
-971.27203 -26.343706 58.633392 4281217327
-969.3631 -26.301159 58.722897 4281348919
-1005.2029 -23.744585 58.922729 4281151794
-1004.0532 -23.834343 59.105282 4281217071
-1000.8944 -23.880724 59.703773 4281217327
-998.51117 -23.753948 59.701019 4281217322
-996.14227 -23.709118 59.945534 4281151537
-993.65088 -23.938879 59.86536 4281151787
-991.17609 -24.378706 59.790131 4281218351
-988.66357 -24.494808 59.756111 4281151278
-986.06018 -23.689922 59.801628 4281086000
-983.77814 -23.622957 59.564594 4281151539
-981.21747 -23.798851 59.435032 4280823603
-978.73779 -23.707798 59.079533 4281216821
-976.22729 -23.759544 59.066803 4281217075
-973.81018 -23.822247 59.273712 4280954931
-971.22821 -23.751583 59.042389 4281282868
-969.53326 -23.856636 59.234497 4281217335
-1005.4436 -21.363394 58.561077 4281479484
-1003.8077 -21.200993 58.855686 4281086258
-1001.2946 -21.338087 59.145737 4281151794
-998.72443 -21.304193 59.273975 4281151537
-996.28778 -21.302015 59.21936 4280954927
-993.71484 -21.087698 59.26292 4281282608
-991.29913 -20.830584 59.337776 4281479728
-988.77618 -21.220951 59.232311 4281348138
-986.29675 -21.305094 59.457485 4280823343
-983.69147 -21.180712 59.155636 4280823856
-981.22113 -21.338272 58.903423 4280954931
-978.84845 -21.255234 58.463715 4281151535
-976.29315 -21.263723 58.780621 4281217332
-973.72241 -21.209578 59.417988 4281151791
-971.2196 -21.132671 59.097736 4281217075
-969.46594 -21.242178 59.40192 4280889898
-1005.521 -18.762768 58.268494 4281283115
-1003.7143 -18.799038 58.289467 4281151536
-1001.1853 -18.776491 58.325943 4281020202
-998.74677 -18.756292 58.405842 4280954673
-996.26062 -18.804173 58.353416 4280954932
-993.763 -18.796778 58.314747 4281151793
-991.25623 -18.756411 58.348633 4281086002
-988.73737 -18.815329 58.28466 4280954928
-986.284 -18.786722 58.380123 4280758318
-983.79944 -18.698008 58.489418 4280954670
-981.26208 -18.803968 58.448864 4280954670
-978.7558 -18.78867 58.393372 4281413680
-976.2262 -18.736971 58.510612 4281086253
-973.72772 -18.844843 58.69725 4281348400
-971.21667 -18.789974 58.674168 4281152047
-969.38367 -18.747889 59.171021 4281151786
-1005.6636 -16.141226 58.397675 4281544753
-1003.7161 -16.260355 58.85564 4281282351
-1001.261 -16.211386 59.018421 4281151278
-998.74945 -16.256102 59.211643 4281151281
-996.45618 -16.058069 59.430496 4281086000
-993.61896 -16.60885 59.146469 4281217587
-990.95557 -16.245964 59.62756 4281086510
-988.802 -16.268742 59.334328 4281348146
-986.19818 -16.262978 58.639729 4281151535
-983.72241 -16.242224 58.524048 4281019691
-981.17975 -16.270315 58.514122 4281151276
-978.73328 -16.261106 58.655277 4281282866
-976.21698 -16.137241 58.76421 4281217330
-973.79803 -16.290073 58.735199 4281348660
-971.28119 -16.263651 58.860584 4281348401
-969.54803 -16.305574 59.212902 4281348653
-1005.7023 -13.729751 58.043049 4281348665
-1003.7355 -13.827243 58.47414 4281348148
-1001.2065 -13.774407 58.503635 4281216810
-998.74591 -13.866085 58.816284 4281216306
-996.24701 -13.737735 59.126789 4281282607
-993.31512 -13.8941 59.353062 4280954918
-991.25214 -13.846864 59.490841 4281217582
-988.72174 -13.892114 59.55732 4281085743
-986.28284 -13.858384 58.620049 4280627503
-983.76184 -13.740163 58.386921 4281085741
-981.2962 -13.680802 58.515575 4281282604
-978.78271 -13.763664 58.817928 4280955445
-976.31305 -13.71004 58.329247 4281217332
-973.72253 -13.757505 58.339767 4281086003
-971.25555 -13.810119 58.737556 4281479218
-969.69348 -13.716916 58.616638 4281348653
-1005.7853 -11.188464 58.348053 4280954925
-1003.6943 -11.305593 58.351105 4281217329
-1001.2293 -11.30286 58.239723 4281020464
-998.79688 -11.528218 58.361256 4281085745
-996.14789 -11.395514 58.638149 4280889650
-993.71558 -11.226619 58.79615 4281020466
-991.25195 -11.255025 58.815632 4281282864
-988.76105 -11.089758 59.210018 4281086001
-986.29645 -11.274089 58.757179 4280889135
-983.74762 -11.218328 58.501736 4280954672
-981.2547 -11.255797 58.440292 4280889643
-978.71899 -11.256679 58.88382 4281151788
-976.20898 -11.24516 58.523624 4280955185
-973.75018 -11.213813 58.40398 4281283377
-971.24408 -11.300845 58.637871 4281283120
-969.75714 -11.237623 58.89653 4281020974
-1005.9278 -8.6841631 58.923859 4281217586
-1003.9554 -8.9066877 57.675125 4280692271
-1001.0862 -8.8397064 57.840179 4280954932
-998.49127 -8.4223471 57.975258 4281152047
-995.97699 -8.6732883 58.177479 4280889395
-993.74841 -8.6676092 58.163464 4281151538
-991.08521 -8.9064722 58.518272 4281217330
-988.68988 -8.7315512 58.497246 4280955182
-986.17902 -8.7733469 58.201752 4280692525
-983.78821 -8.9382458 58.115082 4281282604
-981.63342 -8.8988056 57.960609 4281086003
-978.53168 -8.8004875 58.166363 4281151538
-976.27496 -8.7770329 58.192364 4281283375
-973.75226 -8.6884995 58.315384 4281283117
-971.25031 -8.7445059 58.460041 4281152051
-969.78052 -8.8584156 58.580837 4281085744
-1006.0083 -6.1873116 58.334789 4281282609
-1003.8024 -6.1008458 57.964329 4281086261
-1001.1544 -6.0820661 57.89138 4280889388
-998.68213 -6.2565036 57.841343 4281217326
-996.22223 -6.2592945 58.045219 4280889652
-993.73236 -6.2347174 58.173176 4281020469
-990.87457 -6.0525084 58.302212 4281151538
-988.7561 -6.2487249 58.357086 4280954666
-986.27484 -6.186398 58.274914 4280954673
-983.79395 -6.1474853 58.347897 4281216818
-981.27411 -6.221416 58.259041 4281086001
-978.77216 -6.3097792 57.97411 4281086512
-976.21356 -6.2334237 58.013126 4281413938
-973.75708 -6.1692729 58.359154 4281348145
-971.24762 -6.2767091 58.342934 4281086257
-969.72217 -6.2040739 57.913841 4281216035
-1006.1422 -3.6813946 58.034046 4281282608
-1003.8442 -3.862035 57.943813 4281282609
-1001.2793 -3.719846 57.880596 4281085997
-998.74017 -3.7477167 57.797058 4281086001
-996.34735 -3.8820386 57.981239 4281085747
-993.79449 -3.7382584 58.195065 4280889648
-991.33923 -3.7304134 58.473213 4281282610
-988.81744 -3.7673471 58.41798 4280954929
-986.2149 -3.6653402 58.330502 4281085995
-983.75171 -3.8419614 58.284092 4280823855
-981.20532 -3.7412882 58.153049 4281020465
-978.75427 -3.7020235 58.098579 4281151535
-976.2384 -3.7691019 58.128666 4281151795
-973.73737 -3.7194657 58.134537 4281152052
-971.26575 -3.7368805 58.61385 4281348914
-969.78387 -3.7951944 58.592773 4281280798
-1006.1619 -1.32093 57.916637 4281085748
-1003.6848 -1.2536327 57.85218 4281282349
-1001.2889 -1.1402593 58.316528 4281086003
-998.7702 -1.1032106 58.42907 4280888624
-996.22589 -1.2667171 58.402664 4281151533
-993.70685 -1.2295171 58.615631 4281151535
-991.16937 -1.2198306 58.669369 4281413937
-988.77179 -1.3789963 58.557369 4281217074
-986.19403 -1.3207448 58.502541 4280758061
-983.73773 -1.1898184 59.132328 4280889134
-981.27393 -1.0997204 59.151314 4281085487
-978.74829 -1.1269022 58.852577 4281216816
-976.30353 -1.2737728 58.300419 4281217072
-973.73444 -1.1730211 58.105598 4280955186
-971.30762 -1.3053964 58.273445 4281348398
-969.82227 -2.306778 58.606018 4280887317
-1007.7082 1.5728861 57.796124 4281087021
-1006.5902 1.095432 57.783844 4281020465
-1003.2102 0.99983448 57.877956 4281347634
-1001.1784 1.2283823 57.942593 4280889396
-998.80872 1.0525662 57.74992 4280954932
-996.20288 1.2127473 58.346371 4281085233
-993.8667 1.1185933 57.943821 4280889392
-991.26813 1.315363 58.297897 4281217072
-988.73926 1.1373644 58.401413 4281085997
-986.32257 1.1972306 58.587601 4281085742
-983.76349 1.2442807 58.572811 4281151536
-981.31311 1.2060983 59.049938 4281020208
-978.69653 1.2886007 59.022957 4281217331
-976.22412 1.2455496 58.522549 4281217333
-973.72003 1.3047382 58.301205 4281282359
-971.53241 1.2492901 58.257542 4281283380
-1006.0321 4.1231499 57.821312 4281217586
-1003.3677 4.081358 57.722458 4281216819
-1001.1534 3.8605609 58.075981 4281085485
-999.25909 3.8490403 58.031261 4280955181
-996.00232 3.2337897 57.868412 4281020464
-993.61652 3.6967752 58.00235 4280954415
-991.29199 3.7512078 58.02256 4281020721
-988.69263 3.7200525 57.926041 4281282352
-986.24524 3.7155945 58.047157 4281151538
-983.71484 3.8181713 58.227058 4281085998
-981.2066 3.6579347 58.464924 4281217073
-978.74152 3.7497671 58.752266 4280889397
-976.26331 3.8113556 58.628933 4281151792
-973.77997 3.6880105 58.52832 4281217075
-971.79413 3.7975194 58.14183 4281086259
-1007.8376 6.7084885 57.759979 4281347633
-1006.122 6.2343788 57.803486 4281020979
-1003.7147 6.4476385 58.022854 4280889395
-1001.2985 6.1597009 58.072186 4280758321
-999.41888 6.3109865 57.971226 4281151285
-996.17188 7.0072069 58.142944 4281283121
-993.56915 6.2076869 58.144928 4281020722
-991.21423 6.3608594 58.140106 4281217330
-988.75134 6.3764219 58.067989 4281151793
-986.2569 6.2525749 58.061886 4281085741
-983.78009 6.2915463 58.094734 4281086256
-981.27191 6.2081223 58.039341 4281020463
-978.79382 6.2437482 58.097172 4280955187
-976.2514 6.3408327 58.435211 4281217072
-973.76575 6.1368895 58.536564 4281152050
-971.87006 6.3462343 58.389828 4281085744
-1007.7264 8.8805456 57.994541 4280889394
-1006.4355 8.6254005 57.652733 4281152052
-1003.7932 8.7183647 57.694523 4280889392
-1001.2255 8.5784931 58.017208 4280954926
-999.0271 8.8651953 57.877518 4281020718
-996.23987 8.8123293 58.432968 4280889390
-993.78595 8.766387 58.278225 4280889391
-991.28772 8.7491484 58.404831 4281151793
-988.77234 8.7728338 58.314178 4281085740
-986.24823 8.6964788 58.230057 4280889135
-983.7486 8.5742245 58.128056 4281216561
-981.20154 8.6954679 58.066048 4280954930
-978.71179 8.7352095 57.981041 4281151538
-976.20636 8.6868315 58.036236 4281283123
-973.77606 8.6781006 58.019531 4281152303
-971.92096 8.7627888 58.374596 4281020720
-1006.1805 11.138868 57.590893 4281348408
-1004.4764 10.952481 57.524136 4281151795
-1000.5539 11.382234 57.627975 4281086517
-998.76489 11.30427 57.95697 4281151792
-996.38452 11.309064 58.081879 4281217582
-993.54913 11.057241 58.005829 4281151278
-991.20691 11.253663 58.28949 4281020467
-988.72925 11.312724 58.289207 4281151280
-986.2193 11.244429 58.500973 4281151279
-983.72955 11.237237 58.769466 4280954930
-981.24506 11.273781 58.493801 4281152050
-978.79956 11.241949 58.805145 4281020463
-976.28937 11.245755 58.551105 4281217584
-973.72913 11.289348 58.510334 4281414448
-971.9754 11.191232 59.162575 4280889655
-1000.798 12.966666 57.51511 4281020730
-996.37335 13.946875 57.925938 4281217330
-993.82355 13.588168 57.873222 4280955184
-991.22675 13.235497 57.816387 4281348396
-988.61133 13.55242 57.867897 4280954673
-986.27563 13.709162 57.992287 4280889392
-983.73889 13.7895 58.258102 4281347890
-981.28461 13.799319 58.148319 4281151790
-978.72839 13.72121 58.204754 4281086516
-976.25391 13.686027 58.520344 4281217585
-973.70953 13.791905 58.456089 4281217587
-971.90009 13.545975 58.784435 4281152311
-1008.7504 16.301731 57.539276 4281545255
-996.47577 15.867805 57.764011 4280889646
-992.78973 15.022682 57.714355 4281347382
-991.42664 16.41643 57.669224 4281282611
-988.65802 16.131874 57.584316 4281217331
-986.16034 15.765319 57.710094 4281020459
-983.71625 16.187405 57.891838 4281414195
-981.22339 16.285259 57.892776 4281086516
-978.70685 16.242765 57.931595 4281348145
-976.26672 16.227207 58.221088 4281151792
-973.79431 16.281561 58.298782 4281282868
-972.11664 16.145826 58.390182 4281282860
-1007.8232 19.785244 57.950531 4281281074
-1006.4762 19.771862 57.857323 4280757301
-995.2395 19.934502 57.530762 4279907105
-993.69598 19.102098 57.778767 4281151286
-991.17621 18.703667 57.656277 4281348401
-989.73474 18.616028 57.602867 4281413671
-986.79401 19.284563 57.555813 4281217070
-982.6095 18.638758 57.777199 4281151530
-981.14178 18.805655 57.751003 4281086252
-978.71503 18.660364 57.719894 4281348401
-976.23383 18.671431 57.808521 4281151531
-973.81744 18.427145 57.853191 4281217587
-972.23438 18.566486 58.306042 4281545514
-1008.0763 21.312344 57.812046 4281217068
-1006.2145 21.358379 57.97237 4280954672
-1004.5479 21.302361 57.858387 4281479729
-1000.7474 21.779263 57.824989 4281217330
-998.81421 21.717451 57.751247 4281085744
-996.25848 21.559919 57.687595 4281282612
-993.79437 21.298952 57.850674 4281282868
-991.34363 21.01893 57.606125 4281282867
-988.89612 21.624708 57.650249 4280889394
-986.36139 21.51692 57.885815 4281020462
-983.99719 21.286186 58.030334 4281413941
-981.22797 21.12808 57.775761 4281217070
-978.57159 21.381876 57.699982 4281152048
-976.20203 21.215832 57.682858 4281217330
-974.54962 20.587986 57.646873 4281611315
-972.39575 20.475477 57.575481 4281152054
-1007.7567 23.383471 57.730762 4281478966
-1006.3915 23.269766 57.69405 4281282358
-1004.1888 23.453465 57.8144 4281348146
-1000.9402 23.720573 57.91634 4281020718
-998.80054 23.917631 57.708305 4281151278
-996.48724 23.888371 57.67485 4281413934
-993.94958 23.819036 57.760189 4280824115
-991.21521 23.846636 57.593269 4281283120
-988.75708 23.398413 57.569118 4281151283
-985.70715 23.40457 58.011475 4281413681
-983.95831 23.672625 58.06665 4281676850
-981.30438 23.896502 57.779747 4280954929
-978.79895 23.779545 57.744289 4281348911
-977.01587 23.775551 57.821186 4281348399
-972.48541 23.951126 57.507019 4280824633
-1008.7028 26.206772 57.756718 4281086516
-1004.9933 25.332966 57.536591 4281740853
-1000.5068 25.64006 57.988842 4281086003
-998.66669 25.853716 57.716621 4281151018
-996.23627 26.209875 57.882435 4281151797
-993.67542 26.173868 57.708199 4280954680
-991.11676 26.249535 57.656811 4281151797
-989.23926 26.199795 57.796757 4281282608
-986.16357 26.614473 57.750446 4281216819
-983.45056 26.617126 57.65255 4281282868
-981.31458 26.217791 57.643024 4281348397
-979.42194 26.180901 57.532066 4281413680
-976.2373 26.386332 57.649261 4281217332
-1006.2169 28.304693 57.819221 4281545272
-997.7605 27.983788 57.615814 4280561970
-995.9635 28.299942 57.875824 4281283123
-992.89001 28.217361 57.578938 4281217080
-991.46735 28.086386 57.533169 4281283123
-988.09515 28.408817 57.935989 4281020206
-986.07281 28.56156 57.996033 4281151791
-983.68695 28.529076 57.681232 4280955442
-981.24316 28.592461 57.72472 4281283123
-978.55695 28.716671 57.631977 4281348661
-976.00934 28.000719 57.543423 4281348919
-1009.4633 32.002785 57.754333 4280823601
-998.57733 31.503113 57.646851 4281085743
-997.20941 32.461868 57.638489 4280168761
-992.78619 31.439592 57.65522 4281413678
-988.37238 31.848175 57.750633 4280954160
-986.1626 31.3405 57.719414 4281348654
-984.75739 31.337109 57.593449 4281283380
-981.99231 30.9995 57.608551 4280889902
-978.07245 31.26256 57.832336 4281152052
-976.59064 31.754541 57.61488 4281282861
-1009.4895 32.998184 57.722198 4281151020
-998.39752 33.52026 57.602249 4281217584
-996.84949 33.835743 57.887669 4281020725
-993.81067 32.990974 57.583229 4280954674
-990.74805 32.606518 57.760986 4281217320
-988.37042 33.524986 57.743233 4281217586
-985.95953 33.621552 57.860199 4280955442
-983.92841 33.925446 57.645126 4281086258
-981.35065 34.157742 57.729198 4281348404
-978.33893 33.548298 57.751682 4281348663
-976.41223 34.101505 58.026352 4281020974
-973.73676 34.074162 57.962727 4281348918
-996.45331 36.053688 57.733616 4281544748
-990.02722 36.761925 57.67482 4280824365
-988.64062 36.896275 57.619923 4281413685
-985.76996 35.863018 57.609467 4281151284
-984.49097 35.452347 57.513184 4281019698
-981.26123 36.212112 57.673656 4281217586
-978.39197 36.084366 57.66914 4281413940
-976.59186 35.920055 57.890148 4281152309
-974.06769 35.67345 57.878029 4281610551
-995.68433 37.943882 57.843201 4281807146
-990.07001 38.416626 57.63802 4281217330
-988.73309 38.769779 57.585911 4280759098
-986.29083 38.623428 57.602261 4280955182
-983.96497 39.222084 57.582619 4281348651
-981.75964 37.9879 57.761246 4280955698
-977.97699 38.129738 57.772041 4281348663
-976.95416 38.057739 57.882816 4281675830
-1010.0543 42.094051 57.577942 4280758835
-1008.9955 42.249744 57.604698 4280889136
-1002.2842 40.73473 57.50639 4281413679
-997.78418 42.361984 57.823425 4280562745
-996.29578 42.399712 57.77179 4281021738
-993.83923 42.291756 57.743225 4281347887
-992.49194 42.495499 57.640076 4281675832
-986.31396 40.486763 57.636551 4280562474
-983.92249 40.831646 57.631874 4281086001
-978.24237 41.991535 57.666321 4281808180
-1010.0956 43.687881 57.541393 4281282618
-1008.5408 43.53619 57.606586 4281479472
-1001.3052 43.622334 57.547344 4281282860
-997.79736 42.858753 57.801514 4280955433
-995.68042 43.551373 57.776821 4281349165
-993.6803 43.650726 57.773994 4281348658
-991.25281 43.572739 57.634937 4281348659
-988.67676 43.832542 57.746731 4280954671
-986.21661 44.36544 57.645813 4281152051
-983.73895 43.507038 57.851124 4281217845
-978.1275 43.976082 57.696091 4280956209
-991.56854 45.167816 57.529297 4281415212
-985.94592 45.460709 57.521118 4280626996
-977.85254 46.179596 57.76923 4281479213
-976.21912 46.007992 57.576775 4281086261
-974.48718 46.499954 57.73716 4281611320
-1000.2886 49.743759 57.838684 4281480766
-999.79626 49.763561 57.714676 4281087030
-978.01971 48.803612 57.682545 4281414964
-975.62964 48.329151 57.679363 4281414456
-974.61877 48.116879 57.669773 4281480241
-1000.8761 51.318459 57.736626 4281283118
-999.81335 50.424625 57.701645 4281086754
-974.80963 50.008415 57.560852 4282003235
-996.84839 -37.920837 60.155426 4281022007
-1002.6665 -36.085762 60.732811 4281086773
-1001.1855 -36.221558 60.421497 4281282614
-998.73303 -36.108311 60.326447 4281217589
-996.24969 -35.870167 60.516426 4281217589
-993.7066 -35.769955 60.360672 4281151797
-991.60303 -35.670013 60.379181 4281152310
-988.84937 -35.819637 60.80954 4281283375
-986.20697 -35.750256 60.619915 4281217076
-983.56042 -35.745712 60.195198 4281217332
-981.42615 -35.965031 60.213604 4281152307
-979.05768 -35.848564 60.26894 4281217588
-976.37311 -35.445328 60.257992 4281480496
-973.76312 -35.186218 60.349556 4281348147
-972.11261 -35.148766 60.269714 4281610810
-988.85736 -34.720612 60.347977 4281152815
-985.89172 -34.646984 60.193787 4281216560
-983.24945 -34.585197 60.083855 4281283126
-981.50403 -34.166481 60.100845 4281283124
-979.39221 -34.743378 60.351471 4281348146
-976.37317 -34.842033 60.440979 4281480243
-973.82739 -34.821701 60.374432 4281282356
-972.13605 -34.247368 60.206627 4281348661
-1002.9612 -25.138016 60.20752 4281609517
-1001.309 -25.096527 60.15033 4280759098
-999.2132 -25.154108 60.080078 4280824116
-988.7193 -25.267258 60.582275 4281347628
-983.95898 -25.443384 60.363354 4281544758
-1003.0195 -23.558041 60.197647 4280954927
-1001.8043 -23.674713 60.158649 4281413424
-999.18445 -23.715311 60.35104 4281348400
-996.22815 -23.836172 60.317665 4280955183
-993.75104 -23.690496 60.25885 4281151789
-991.30298 -23.592333 60.172478 4281282611
-988.78497 -23.671776 60.149483 4281217074
-987.11908 -23.651512 60.033524 4280955444
-983.6322 -24.188808 60.079552 4280758069
-982.48193 -23.954559 60.018921 4281479476
-973.0896 -22.889982 60.02409 4281676087
-968.95038 -23.279469 60.055801 4281413931
-1002.8738 -22.323151 60.012955 4281414197
-994.27032 -21.939421 60.206005 4280693048
-991.18866 -21.759657 60.249481 4281282862
-988.80951 -22.215363 60.027618 4281544757
-981.56299 -20.952456 60.262901 4281086260
-978.43854 -20.9492 60.280884 4280955183
-974.01215 -21.469156 60.019413 4281283122
-968.97601 -22.287735 60.03595 4281151015
-974.48676 -19.947872 60.010773 4281413688
-995.70349 -16.46834 60.173111 4281348154
-993.98071 -15.927566 60.063187 4281152049
-991.84332 -16.291817 60.078701 4280889395
-995.99591 -12.724454 60.058147 4281020721
-994.0564 -13.838036 60.090939 4281217326
-990.88983 -13.191589 60.049866 4280954930
-988.85846 -13.176016 60.013405 4281282864
-994.18213 -12.3494 60.177505 4281545268
-990.54944 -12.257046 60.052032 4281152305
-989.22852 -12.224731 60.006073 4280627507
