# .PCD v0.7 - Point Cloud Data file format
VERSION 0.7
FIELDS x y z rgba
SIZE 4 4 4 4
TYPE F F F U
COUNT 1 1 1 1
WIDTH 1134
HEIGHT 1
VIEWPOINT 0 0 0 1 0 0 0
POINTS 1134
DATA ascii
-1015.2719 -24.433884 7.6671753 4280236589
-1018.1101 -21.53717 8.5375977 4282207016
-1017.3665 -22.19278 8.9956055 4281878589
-1022.8218 -17.602463 7.7618408 4282271066
-1022.0377 -17.9916 8.9758301 4281811795
-1023.9597 -16.372246 8.3484497 4282534964
-1036.2366 -6.2074356 8.5925293 4281942320
-1038.3092 -3.7523575 9.1003008 4283521867
-1037.2805 -4.6942711 9.2314758 4283849030
-1042.514 -0.24931335 8.8792725 4283523159
-1041.3464 -1.1649847 8.9085541 4283327319
-1043.3806 0.80911255 8.628459 4284379747
-1043.0267 3.4427567 7.9932251 4285631606
-977.87769 12.115347 8.5633545 4284571742
-976.94501 11.241929 9.066947 4284439904
-981.03125 14.532764 9.1484823 4284704351
-978.92517 13.259111 8.6437817 4284769121
-983.11719 16.305401 8.6600904 4284572252
-981.91138 15.667748 8.2488098 4284703580
-985.79626 18.874535 8.5991735 4284571993
-984.54083 17.86751 8.85672 4284243547
-990.07587 22.4338 9.2116699 4284244050
-988.76776 21.221087 8.5653458 4284374612
-992.79309 24.407499 8.9405155 4284307795
-991.13763 23.424831 8.6412773 4284178001
-995.75488 26.948231 8.5995159 4284309334
-993.81403 25.725 8.6707354 4284309593
-1021.7651 29.722816 9.7542114 4284899938
-998.4483 29.285316 8.583663 4284243286
-996.8075 28.214001 8.4878387 4284244058
-1001.4189 31.819832 8.6760101 4284309068
-999.0611 30.143723 8.0342407 4284308314
-1005.0741 34.638687 9.6505127 4284242779
-1003.8312 33.91605 8.9619141 4284176978
-1002.1475 32.673927 8.5023804 4284046684
-1007.907 37.25745 8.776062 4284176986
-1006.0397 35.984898 8.557354 4284111443
-1004.8193 35.305275 7.5818481 4283849038
-1012.5593 38.502815 8.9239044 4284112223
-1011.4084 39.098392 8.8580017 4284111706
-1009.0969 38.429901 8.3836784 4284308569
-1015.3193 -23.210068 10.761932 4282470207
-1013.7628 -24.269299 11.581619 4283260236
-1018.0731 -20.621689 10.930761 4283392841
-1017.0262 -21.515076 11.306641 4283326295
-1021.1667 -18.317013 10.233749 4282797632
-1019.2089 -19.590631 10.716228 4283589715
-1023.4313 -15.890727 11.201391 4283196251
-1021.8995 -17.278923 11.638062 4283653973
-1027.7065 -12.581314 10.300354 4283128394
-1027.1161 -12.948963 11.158417 4282868813
-1023.6825 -14.970123 12.055298 4284382568
-1035.7047 -5.3125935 11.343079 4283854944
-1037.8757 -3.1287155 11.158936 4283723879
-1036.4508 -4.20998 11.719617 4284249697
-1040.8148 -0.48355803 11.401271 4284249704
-1039.6478 -1.2724838 12.253987 4284381285
-1042.6997 2.0546455 11.619385 4285368434
-1041.4348 1.3141545 11.867821 4284513900
-1041.494 3.5470951 12.048632 4285172084
-1041.0619 5.7577438 11.294128 4285624941
-1038.6067 9.2781105 12.420898 4285097316
-1036.385 11.42017 12.389191 4284968552
-978.61603 11.884582 11.463826 4284506465
-977.17914 11.052086 10.39032 4284964964
-982.67944 14.828854 11.214478 4284637785
-981.13037 13.746053 11.244164 4284638816
-979.58691 12.71607 11.343054 4284704355
-985.39221 17.046656 11.935259 4284375638
-983.95007 16.36447 11.49092 4284506200
-982.18097 15.26622 10.194153 4284834138
-988.11945 19.549568 11.805838 4284440922
-986.5304 18.693764 11.439532 4284571734
-1028.866 21.433586 10.685974 4284967013
-990.70703 21.984655 11.712716 4284178263
-989.32434 20.755983 11.430437 4284374610
-993.3111 24.30183 11.472983 4284308564
-991.63788 22.902256 11.293801 4284177492
-1025.8209 25.028099 10.35022 4284902759
-998.15521 27.167839 12.210582 4284505683
-996.30389 26.473856 11.603081 4284506457
-994.44702 25.428324 11.472277 4284375133
-1021.9733 28.658833 11.781982 4284835426
-1000.2469 29.675802 11.56105 4284439378
-998.73608 28.555161 11.178585 4284243795
-997.24164 27.886921 11.26973 4284572500
-1019.9222 30.805397 11.877655 4284704872
-1003.0176 32.166077 11.540502 4284309852
-1001.3987 30.985683 11.632852 4284309334
-1017.511 33.544792 12.47406 4285032803
-1007.9415 34.7187 12.32193 4284441429
-1006.124 34.398014 11.922793 4284374869
-1004.0632 33.252579 11.325052 4284243539
-1015.1426 36.394135 12.342529 4284639074
-1010.4401 37.093636 12.437622 4284637529
-1008.3889 36.583141 11.728053 4284439895
-1006.8454 35.688778 11.177627 4284374612
-1010.9656 38.659706 11.273903 4284111703
-1009.5081 37.729843 11.483765 4284243289
-1017.7282 -20.248199 12.940826 4284248419
-1016.2584 -20.87524 13.530733 4284250474
-1017.7982 -19.476658 13.38712 4284250731
-1017.0006 -19.660656 13.744019 4284382055
-1022.8077 -15.431926 13.117432 4284381540
-1021.5175 -16.32057 13.719749 4284316524
-1022.9164 -14.779907 13.237427 4284448110
-1040.1018 -0.34387207 12.710144 4284512872
-1039.4471 -0.78566134 12.884473 4284446827
-1040.1156 0.35371909 12.749553 4284382307
-1041.272 4.3310318 12.630066 4285763448
-1040.5039 5.7178268 13.917603 4285826674
-1039.0859 7.1825371 14.630676 4285237624
-1038.7091 8.4758387 13.442723 4285495660
-978.60535 9.0133686 13.955585 4284111703
-1036.0857 11.25159 13.627045 4285234802
-1034.9908 12.053246 14.934326 4285237360
-980.68835 11.776746 14.244247 4284835944
-978.93475 10.910583 13.609552 4284441182
-977.49628 10.716159 13.117249 4284703579
-1035.1915 12.603348 13.957947 4285429867
-1033.7557 14.054716 14.051478 4285168749
-983.45825 14.271451 13.595978 4284637786
-981.68018 13.354294 13.524292 4284834910
-1032.7815 15.157414 14.335022 4285169524
-1031.975 16.097229 14.547806 4285496175
-986.2782 16.713882 13.382125 4284637783
-984.30713 15.585482 13.242358 4284637526
-1030.3101 17.739868 13.942078 4285893240
-1028.7911 19.446777 13.768799 4285435000
-990.47235 19.648279 14.307251 4284244581
-988.63892 18.818821 13.433714 4284375127
-987.00922 18.1366 12.895259 4284571730
-1028.1317 20.668602 13.629013 4285431662
-1026.9241 21.721184 13.800049 4285566067
-993.09137 22.073744 14.130676 4284309078
-991.28888 21.311323 13.453147 4284112465
-989.65979 20.19153 12.834363 4284374092
-1025.3909 23.647766 14.514807 4285696115
-1024.3582 24.921295 14.224365 4285629044
-995.51465 24.514744 13.740891 4284703578
-993.86603 23.53824 13.762372 4284374869
-992.4494 22.732094 12.608459 4283586637
-1023.1087 26.089798 14.450882 4285301106
-1022.3121 27.002026 14.889173 4285892467
-998.26404 26.813562 12.911487 4284439637
-996.41858 25.727072 13.061853 4284571994
-994.95117 25.32025 12.799438 4284638300
-1020.7458 29.070044 14.035027 4285299821
-1019.7415 29.82373 14.7229 4285762673
-1001.0804 29.356972 13.609616 4284308823
-999.41687 28.160126 12.82384 4284309072
-1020.126 30.035995 14.169922 4284968814
-1019.129 31.149286 14.224806 4285364078
-1003.6386 31.50209 13.195443 4284506204
-1001.8848 30.377249 13.231303 4284178004
-1017.7145 32.681946 14.837463 4285625198
-1016.7676 34.03651 13.577612 4285231206
-1008.1019 34.957397 12.802307 4284572241
-1006.0116 33.569756 13.01027 4284440664
-1004.5964 32.788124 13.096339 4284637269
-1015.2051 35.668541 14.232315 4284904557
-1014.6755 36.239288 14.655945 4285364084
-1010.6111 37.409306 12.694946 4284440928
-1009.0585 36.074352 12.850225 4284571994
-981.58008 2.2991562 17.247101 4281220399
-1040.3348 4.3800049 15.656464 4284645997
-981.56207 3.4197655 16.406713 4281744441
-1040.3779 5.3217468 15.398926 4285696886
-1039.3463 6.3733821 16.561481 4284843379
-1037.9041 8.3360262 16.104757 4285302128
-1036.9224 9.4108896 16.682573 4285105524
-979.8877 9.7845612 15.143616 4285825895
-1036.0608 10.480811 16.262362 4285170804
-1034.6119 12.100521 16.572174 4285237103
-980.9646 11.431973 15.76178 4285230947
-1033.4775 13.416025 16.273325 4285171829
-1032.1503 14.579129 16.517212 4284647536
-1031.0564 16.257557 16.262775 4285368691
-1029.7549 17.21537 16.839233 4284385400
-988.41077 17.419777 15.891418 4285824614
-1028.9636 18.629475 16.543758 4285303157
-1027.7053 20.418173 15.639323 4285434741
-1026.6132 21.166874 16.410946 4285171826
-1025.491 22.867451 15.975245 4285566323
-1024.137 24.280094 16.527617 4285368692
-994.2652 22.905666 16.574066 4284709996
-1023.1075 25.519358 15.816345 4285499509
-1021.8259 26.836048 16.605904 4285302897
-999.40961 27.288147 16.655823 4285496963
-1020.8213 28.015055 16.080301 4285105777
-1019.3589 29.390982 16.742645 4284909418
-1018.3918 31.071678 16.092798 4285631093
-1016.0944 33.949318 15.684411 4285564276
-1014.7469 34.726856 16.684265 4284778612
-1014.2912 35.564243 16.073391 4285039990
-1011.4696 36.383411 16.251129 4285762944
-1008.2858 35.036629 16.758057 4285166964
-956.89832 -21.70784 19.507629 4284176469
-970.32147 -10.61866 19.842468 4284569689
-969.06104 -11.235782 19.600464 4283980118
-973.1626 -7.7183685 19.664938 4283849296
-972.4566 -8.2516022 19.866333 4284309335
-975.76117 -5.4312387 19.15336 4283848524
-973.98749 -7.1001792 19.269247 4283652685
-977.93182 -3.7267914 19.906158 4283520082
-976.87549 -4.6224685 19.424479 4283980377
-980.53357 -0.90144348 19.501867 4282795071
-982.7627 2.1653645 19.142294 4281546797
-981.8703 1.9443163 18.897654 4282137637
-1039.6598 4.7241516 18.447977 4284251753
-982.78009 2.9521446 19.322052 4282204735
-982.24298 3.0723364 19.062021 4281743918
-1038.5084 6.350431 19.086618 4284317292
-1037.3282 7.3213921 19.44458 4284513390
-979.79584 7.2924805 17.616882 4284707935
-1036.2714 8.7919884 18.848255 4284448874
-979.81433 8.1494751 17.917419 4286024311
-1035.2017 10.573586 17.931234 4284645744
-1034.1703 11.499839 18.876909 4284580204
-981.50946 11.173589 17.867044 4286485380
-1033.2655 12.834697 18.212851 4284777840
-1031.5427 14.175476 18.97291 4284252264
-983.76843 13.587692 17.714905 4286092419
-1030.5837 15.639768 18.428003 4284514921
-1029.4637 16.598724 18.897655 4284448870
-985.90009 15.59594 17.691345 4285762181
-1028.2284 18.416214 18.902796 4284318318
-1026.5905 19.716877 19.091919 4284580198
-990.1394 18.802078 17.830719 4286288776
-1025.7133 21.009178 18.642979 4284711019
-1024.6593 22.040361 19.161699 4284579946
-992.63068 21.331154 17.836792 4285631609
-1023.7601 23.650503 18.632118 4284580458
-1022.4642 24.536972 19.594604 4284121965
-995.76672 23.451874 19.191833 4286421905
-994.05151 22.681564 17.856079 4285106297
-1022.5593 25.006927 18.167419 4284514669
-1021.5232 26.050159 18.910892 4284579945
-1020.1274 27.607994 19.322205 4284579945
-1018.6927 29.149824 19.19165 4284383849
-1018.0751 30.360041 17.890381 4284646769
-1016.5034 31.556885 19.434561 4284318058
-1003.7915 30.940914 18.058197 4285762943
-1016.1241 32.69474 18.684387 4284974703
-1014.2211 34.237499 18.971964 4284449130
-1007.8706 34.445946 18.022461 4285892984
-1013.1729 35.340733 18.902853 4284515699
-1011.3183 35.839386 19.290649 4286092162
-952.77747 -25.367233 21.445587 4284439126
-955.16382 -23.379486 21.926086 4284242518
-953.98901 -24.142418 21.021311 4284505177
-1005.2598 -21.998657 21.937073 4282014548
-958.52679 -20.536116 21.562431 4284374103
-956.91321 -21.984528 21.167633 4284111443
-1003.2175 -19.831123 22.493469 4281551693
-1001.7028 -18.451826 20.757833 4282469186
-961.29535 -18.36904 21.262712 4284505940
-963.26538 -16.562866 21.389931 4284374868
-962.20337 -17.375374 20.598419 4284506201
-965.90106 -14.248377 21.398018 4283979852
-970.59961 -10.426961 21.858667 4284438609
-969.06232 -11.571082 21.297773 4284045137
-973.23315 -8.0196486 21.478043 4283914835
-972.44287 -8.5659447 21.419617 4284308566
-976.15912 -5.5666966 21.490883 4283848788
-974.37982 -7.0725937 21.360056 4283652176
-978.36279 -3.7662079 21.633514 4283519569
-977.26215 -4.6246262 21.323874 4283979350
-980.61542 -1.2601252 21.211739 4282532921
-1037.6752 1.1392059 22.038635 4284580200
-983.02856 1.653658 21.495184 4281415203
-981.88098 1.0793046 21.080784 4281875494
-1039.0923 4.8299446 20.562225 4284317040
-983.23352 2.8929062 21.246571 4282536012
-982.20941 4.4143677 21.509094 4282406983
-1038.2344 5.8356071 21.204365 4284120425
-1036.8093 6.9899158 21.619461 4284644972
-981.3385 5.5258999 22.065369 4282868307
-1035.7607 8.1678514 21.120562 4284579175
-1034.8417 9.2449741 20.838287 4284579434
-979.80566 8.7605057 20.056183 4286287482
-1033.8787 10.931573 21.019077 4284317033
-1032.0516 12.48539 22.196106 4284383336
-982.99243 12.141773 20.80542 4286160523
-1031.3839 13.575373 21.219238 4284317287
-1028.91 16.217768 21.356071 4284448361
-1026.964 17.48114 22.477661 4284120943
-1027.8777 17.871506 21.338892 4284514672
-1026.5415 18.859972 21.74272 4284448874
-1025.2606 20.597832 21.428305 4284711016
-1024.2107 21.632271 21.337585 4284645226
-993.5719 21.723574 21.964783 4286027138
-992.49518 20.483253 22.352234 4286224515
-1023.196 23.176344 20.82637 4284579432
-1021.9149 24.368118 21.520411 4284448876
-997.1012 24.096504 21.410095 4285630595
-1020.6709 26.059378 20.797369 4284383336
-1019.6315 26.770569 21.638393 4284579948
-999.37573 26.361595 22.271332 4286224521
-1018.2013 28.623016 21.343758 4284449132
-1016.8958 29.529867 21.602701 4284383341
-1016.0057 31.171896 21.392979 4284383337
-1014.8955 32.334679 22.261047 4284252781
-1015.3107 32.561897 20.990479 4284252016
-1013.5537 33.88163 21.243807 4284449133
-1010.4667 34.89798 22.281433 4286159753
-1011.3816 35.285656 21.373611 4285764227
-952.00153 -27.705185 24.703003 4283912779
-953.23206 -25.556684 24.002436 4284570964
-952.0127 -26.747211 23.956629 4284045137
-955.80469 -23.458021 24.220638 4284111184
-954.2854 -24.404711 23.508207 4284374612
-1005.5168 -21.522369 24.385742 4284117864
-1004.5211 -20.487961 24.059021 4283722076
-958.73047 -20.765285 23.771606 4284111957
-956.93555 -22.330383 23.528595 4284570197
-1014.5597 -17.825012 24.794067 4284579179
-1002.9925 -19.274651 23.315552 4283061838
-1001.9734 -18.151079 23.624231 4282995791
-962.68195 -17.635553 24.183432 4284834645
-961.23315 -18.924089 23.978828 4284309588
-959.74945 -19.864799 23.272217 4284571984
-1017.7284 -15.148163 24.84668 4284383081
-1014.9172 -17.317215 24.795776 4284842089
-1001.2957 -17.021347 23.429728 4284579950
-965.26288 -15.35913 24.153543 4284110926
-963.86041 -16.642006 24.038761 4284309076
-1020.3825 -12.890126 24.066748 4284382816
-1019.2017 -13.500676 24.682953 4284382055
-968.30591 -12.960053 24.281136 4283914319
-966.73889 -13.970006 23.703094 4283980113
-1022.6758 -10.276493 24.914459 4284185713
-1021.2441 -11.31783 24.79171 4284250986
-1019.5339 -11.91823 24.838638 4284579180
-1005.0903 -10.178593 24.888245 4284647282
-1004.7419 -10.342255 24.8797 4284974446
-971.04303 -10.736722 24.472576 4283980370
-969.4353 -11.851174 24.047644 4284045137
-1013.1592 -9.4554071 24.969561 4284644970
-1011.5726 -9.3918514 24.914118 4284448620
-1008.8573 -9.4091644 24.911171 4284777068
-1006.4398 -9.062151 24.881308 4284646768
-1004.7598 -9.6528778 24.866272 4284777328
-975.60205 -7.8628106 24.609274 4284111193
-973.78741 -8.5058708 24.216026 4284045651
-972.11487 -9.4765491 24.005022 4283915094
-1028.4927 -5.7236691 24.768723 4284316266
-1027.0288 -6.1941605 24.978882 4284578917
-977.68134 -5.0313873 24.582703 4284045389
-976.41913 -6.470366 24.024021 4284045905
-974.74231 -7.2196045 23.524805 4283915350
-1031.3979 -3.0080757 24.376078 4284316520
-1029.0713 -2.6804085 24.97171 4284512365
-980.53607 -3.2250354 24.679728 4283059013
-978.68628 -4.0528312 24.070896 4283715913
-977.35474 -4.8551941 23.158508 4283979089
-1035.194 -0.39212546 23.855387 4284053605
-1033.3929 -0.85244066 24.226297 4284512617
-1031.1888 -1.3530419 24.451109 4284316263
-1028.7933 -1.4109864 24.427311 4284382312
-1026.3761 -0.98952025 24.589621 4284447595
-1023.7635 -0.72692466 24.723152 4284316781
-1021.4465 -0.52495193 24.667171 4284382567
-1018.9153 -0.43974432 24.859392 4284448364
-1017.0979 -0.61898327 24.807915 4283989348
-982.73785 -0.27338538 24.347097 4282203702
-981.30072 -1.038631 23.975103 4282336313
-1037.6921 2.0969296 23.253967 4284317800
-1036.0475 1.4167631 23.862513 4284448105
-1033.6965 1.2211806 24.393784 4284316779
-1031.2356 1.2312579 24.73905 4284447849
-1028.8678 1.218592 24.864876 4284316775
-1026.4939 0.7869494 24.775778 4284447851
-1023.6447 0.55661047 24.712725 4284579178
-1021.0892 0.99969375 24.763575 4284448106
-1018.8122 1.126433 24.843964 4284513902
-1016.4302 1.2142279 24.803291 4284448365
-1013.7428 1.3924268 24.908257 4284579691
-1011.3128 1.5455191 24.858145 4284579948
-1009.5237 1.5904185 24.805876 4284579943
-983.5271 1.127009 23.851297 4281284386
-982.14105 0.37301254 23.11203 4281941042
-1037.8549 3.8984494 23.679157 4284382827
-1036.1667 3.7762091 24.005426 4284382315
-1033.7756 3.7643585 24.14954 4284316520
-1031.3602 3.6519752 24.063019 4284250987
-1028.7445 3.7342286 24.371168 4284382312
-1026.4092 4.0330405 24.3901 4284448104
-1023.6803 4.485507 24.581144 4284513384
-1021.3598 4.0172687 24.919331 4284579431
-1019.9375 4.6031761 24.910004 4284252776
-1015.2987 3.9586799 24.94408 4284579433
-1014.2438 3.4719572 24.91823 4284448360
-983.41711 3.6597257 24.012129 4283724383
-982.41296 4.9808273 24.353943 4283988309
-1037.9342 5.1895905 22.955587 4284252012
-1036.162 6.0904059 23.807419 4284513637
-1033.8395 6.3477011 24.140461 4284447848
-1031.2521 6.2427497 24.044071 4284513385
-1028.6991 6.1881881 23.956141 4284251497
-1026.2288 6.1705585 23.910601 4284448362
-1023.8281 6.101016 23.939558 4284382827
-1021.3311 6.1967659 24.04019 4284513643
-1018.746 6.2452993 24.169912 4284382569
-1016.1563 6.3833084 24.43675 4284513899
-1013.8384 6.3964133 24.403616 4284448618
-1011.3848 6.5264115 24.493044 4284448362
-1008.8671 6.8721318 24.624783 4284710761
-1006.1849 7.020823 24.785482 4284579949
-1003.8093 7.1525817 24.674753 4284317295
-1000.7088 7.1858711 24.692383 4284514409
-998.07654 6.9253998 24.937756 4284645734
-994.85114 7.2798462 24.878235 4284775527
-986.58899 7.1792974 24.894798 4284711784
-981.30475 6.2813563 23.922525 4283987556
-1035.1412 7.927134 22.619385 4284579429
-1033.9353 8.8021107 24.14109 4284448362
-1031.1749 8.0160065 24.78653 4284252008
-1028.4578 7.8499374 24.493713 4284514154
-1025.932 8.2846308 24.528135 4284513642
-1023.7956 8.7477474 24.231873 4284448361
-1021.1668 8.8233433 24.537907 4284382568
-1018.6812 8.8910494 24.594873 4284579178
-1016.2659 8.6614046 24.501381 4284448364
-1013.8629 8.7243938 24.301792 4284382825
-1011.2783 8.7877293 24.28544 4284383082
-1008.6929 8.8501482 24.295734 4284710506
-1006.1541 8.6580362 24.489561 4284513898
-1003.8741 8.7471485 24.366169 4284383083
-1001.1983 8.7799759 24.392803 4284448620
-998.47931 8.8052807 24.654015 4284514154
-996.9259 9.3225965 24.658199 4284448878
-994.71478 8.6592417 24.845097 4284644968
-986.70929 8.1146984 24.978804 4284449131
-980.43866 8.5813475 24.479441 4285959545
-1032.9897 10.834532 23.622522 4284448106
-1031.8075 11.825361 23.920147 4284317288
-1023.1365 10.468159 24.784332 4284185705
-1020.9902 10.694137 24.863363 4284448102
-1018.656 11.113687 24.910292 4284382315
-1016.2527 11.009534 24.809135 4284579176
-1013.766 10.453699 24.703281 4284579178
-1011.193 10.48696 24.670845 4284513642
-1008.7225 10.564036 24.59733 4284579178
-1005.9924 10.632697 24.576817 4284186474
-1003.558 10.548264 24.453094 4284317549
-1001.0831 10.775316 24.392157 4284579431
-998.67352 10.956182 24.676559 4284383081
-996.56049 10.993971 24.706446 4284383339
-994.77673 11.065881 24.797468 4284383079
-991.95691 11.738396 24.687469 4284448872
-988.70947 12.16996 24.966919 4284449126
-983.66711 11.89677 24.589817 4286224514
-982.10565 10.96728 24.436707 4286224265
-1030.6448 13.546414 23.920094 4284645482
-1028.9979 14.442959 24.381384 4284579691
-1026.5262 14.816782 24.867603 4284579436
-1024.6824 14.987923 24.83075 4284842348
-1013.7965 13.877542 24.745708 4284317035
-1010.7769 14.229311 24.635412 4284513383
-1008.7876 14.274007 24.53726 4284448362
-1006.0873 14.676925 24.729147 4284316779
-1003.9387 14.79992 24.799337 4284447848
-1002.279 14.758492 24.626923 4284448106
-988.1239 13.45488 24.919373 4284908651
-985.48077 13.534317 24.729259 4286158468
-983.87384 12.697983 24.184875 4286224775
-1028.1625 15.959937 23.592625 4284382825
-1026.1942 16.282988 24.510746 4284448618
-1023.6844 16.362968 24.778503 4284513899
-1021.4542 16.55489 24.803993 4284579436
-1019.215 17.012981 24.807739 4284513897
-1010.2928 15.481606 24.592871 4284448108
-1008.851 15.553179 24.50386 4284513640
-1006.2289 15.695483 24.507254 4284513898
-1003.5939 16.076397 24.771023 4284579435
-1001.2665 16.466169 24.753721 4284448621
-999.67419 16.689594 24.736925 4284579177
-995.89996 16.82959 24.716614 4284317280
-991.65875 17.206142 24.944485 4284843627
-988.69867 16.299601 24.65151 4286093444
-987.36505 15.130404 24.852274 4286224519
-1025.9288 18.361654 24.159437 4284448620
-1023.7582 18.773508 24.780149 4284513898
-1021.3804 18.519876 24.809498 4284448619
-1018.7302 18.230541 24.766083 4284513642
-1016.2186 18.75186 24.688963 4284448365
-1014.1029 19.034008 24.620667 4284448361
-1010.3092 19.627964 24.988312 4284709995
-1009.4451 19.477362 24.967651 4284513132
-1000.9346 17.945189 24.86516 4284383340
-998.97052 18.099436 24.795008 4284448621
-995.98529 17.916525 24.697012 4284384108
-993.29541 18.979216 24.927883 4284975476
-991.63257 18.30802 24.556078 4285698423
-1023.5136 21.001244 24.092131 4284514156
-1021.3391 21.602301 24.5595 4284513897
-1018.6317 21.878994 24.573986 4284317035
-1016.2499 22.250427 24.645773 4284251751
-1014.529 22.291922 24.611166 4284513381
-1010.3262 20.315071 24.99176 4284448100
-1009.292 20.2264 24.958334 4284185450
-1006.5522 20.919918 24.995117 4284055408
-995.60199 21.716108 24.403025 4285895038
-993.99158 20.863768 24.339905 4286027138
-1022.7461 22.656956 22.847595 4284907110
-1020.981 23.605165 23.839205 4284514156
-1018.7026 23.690029 24.170547 4284579693
-1016.3305 23.795919 24.243729 4284317549
-1013.755 23.824303 24.300303 4284448363
-1011.2272 23.855822 24.420517 4284514156
-1008.7548 24.166918 24.695269 4284579691
-1006.2175 23.9559 24.687675 4284513902
-1004.038 24.341862 24.666492 4284579948
-1001.4854 24.488165 24.748739 4284514668
-998.62292 24.210051 24.328165 4285763450
-996.88867 23.449308 24.093811 4286224005
-1020.3282 25.296843 23.366894 4284514157
-1019.1202 26.221966 24.401068 4284579946
-1015.8121 25.810707 24.817825 4284186472
-1013.6631 25.378056 24.747965 4284448615
-1011.1634 25.554321 24.606916 4284514155
-1008.8234 25.768206 24.765484 4284579691
-1006.1939 25.754507 24.673819 4284317291
-1004.0314 26.197842 24.527491 4284580205
-1001.3571 26.088762 24.321989 4285303415
-999.38251 25.714031 23.325243 4286223751
-1018.1289 27.794439 23.247253 4284514926
-1016.1456 28.792774 24.311472 4284711020
-1013.7977 29.382761 24.662682 4284514408
-1011.1974 29.457857 24.905375 4284514413
-1008.6606 29.29738 24.875763 4284514922
-1005.3962 29.382439 24.742256 4284581229
-1003.7032 28.826454 24.622387 4285829756
-1002.2615 27.911575 24.706543 4286420871
-1015.4041 30.581453 23.868917 4284317806
-1013.7534 31.266212 24.141037 4284514410
-1011.3143 31.197788 24.381977 4284449389
-1008.7857 31.367083 24.350805 4284712047
-1006.2537 30.988199 24.400703 4285764220
-1004.6008 30.52519 23.787241 4286223753
-1013.2767 33.161625 23.505087 4284449642
-1011.2932 33.697437 23.692039 4284778098
-1008.8596 33.162304 23.834526 4285829504
-1006.5893 32.526733 22.747498 4286487428
-1010.9705 35.189007 22.755371 4286289533
-953.15045 -28.621439 25.578978 4283782482
-955.64825 -25.098541 26.686666 4284571740
-953.80579 -26.214266 25.777481 4284243028
-952.37384 -26.945303 25.193848 4283914321
-1008.0865 -22.725178 26.068604 4284448362
-1007.3696 -22.736673 26.050638 4284381805
-958.03351 -22.729658 26.276886 4284309081
-956.24835 -23.956303 25.702055 4283980881
-954.66956 -24.720535 25.573242 4284833628
-1010.5807 -20.586596 26.342979 4284513128
-1008.6786 -21.090315 26.5093 4284382313
-1006.4509 -21.118176 26.37077 4284513127
-1004.6138 -20.18821 26.231812 4284249443
-960.62616 -20.477665 26.765768 4284703576
-958.93506 -21.45322 25.987167 4284309333
-1013.2918 -18.198189 25.618746 4284251498
-1011.2396 -18.609812 26.318636 4284382567
-1008.77 -18.750729 26.607801 4284513899
-1006.1373 -18.77969 26.73712 4284579693
-1003.9887 -18.5415 26.221285 4284316780
-1002.3506 -17.810575 25.454895 4284380256
-963.20087 -18.283112 25.972534 4284703576
-961.40814 -19.334625 25.932901 4284440658
-1016.1302 -15.639834 25.636038 4284448110
-1013.7424 -16.245138 25.635174 4284382826
-1011.2056 -16.2248 25.821123 4284448616
-1008.6511 -16.221869 25.821699 4284645483
-1006.2938 -16.252308 25.902401 4284580202
-1003.829 -16.317694 26.069775 4284645998
-1001.6064 -16.080044 25.956793 4284976246
-966.1452 -15.622239 26.055664 4283980625
-964.31134 -16.93585 25.394165 4283718741
-1018.3282 -13.547543 25.276014 4284710249
-1016.2951 -13.73825 25.651367 4284317034
-1013.7576 -13.82294 25.872858 4284448621
-1011.1547 -13.7726 25.982143 4284383084
-1008.7357 -13.7122 26.199095 4284711274
-1006.3402 -13.726308 26.386189 4284646511
-1003.7324 -13.842226 26.349062 4284778353
-1001.1982 -13.727377 26.450439 4285042294
-999.30164 -13.024877 26.985985 4285437307
-970.37238 -12.745667 26.214315 4284048230
-968.83453 -13.435933 25.923973 4284111444
-966.87323 -14.493745 25.725142 4283979860
-1023.0029 -10.100723 25.282898 4284316520
-1020.9249 -10.455254 25.273603 4284185451
-1018.8248 -11.226103 25.230883 4284447848
-1016.2361 -11.338927 25.20155 4284447847
-1013.6342 -11.321897 25.45644 4284579946
-1011.2383 -11.257592 25.537113 4284448618
-1008.8354 -11.205517 25.648411 4284645482
-1006.2703 -11.25144 26.069052 4284646255
-1003.6877 -11.3349 26.165634 4284843889
-1001.2192 -11.188022 26.421253 4284976501
-998.92389 -11.112887 26.268187 4285239673
-997.24054 -10.429848 25.957968 4285502582
-971.42725 -11.198395 25.715197 4284112211
-969.58459 -12.257523 25.478912 4283849041
-1025.3937 -7.9302597 25.734114 4284447842
-1023.6236 -8.6196356 25.627703 4284316521
-1021.3367 -8.769043 25.518066 4284382055
-1018.691 -8.7645426 25.756725 4284317032
-1016.176 -8.8733358 25.54019 4284513641
-1013.8873 -8.6138048 25.375286 4284513898
-1011.1667 -8.3598394 25.335112 4284514927
-1008.7567 -8.4472265 25.583815 4284777065
-1006.1309 -8.7415438 25.593939 4284580975
-1003.6556 -8.7229185 25.537647 4284778095
-1001.3099 -8.7098627 25.624048 4285041267
-998.71143 -8.7112799 25.516924 4285108086
-996.33099 -8.5037985 25.916777 4285305463
-994.76849 -7.8586826 26.444061 4285240704
-975.52264 -8.2583838 26.26532 4284178784
-973.95892 -9.0803757 25.765816 4283849299
-972.04944 -9.9851303 25.017639 4284046937
-1028.2045 -5.324934 25.354868 4284316516
-1025.98 -6.0124936 25.466694 4284512873
-1023.7689 -6.3076477 25.563526 4284447337
-1021.3249 -6.3581967 25.516207 4284447593
-1018.7778 -6.2621484 26.031033 4284317033
-1016.1554 -6.3304014 26.101751 4284448363
-1013.7413 -6.2708836 26.191908 4284645226
-1011.3064 -6.218874 26.31645 4284645484
-1008.7578 -6.2066894 26.595043 4284645998
-1006.1736 -6.3448281 26.34026 4284646509
-1003.7599 -6.3176088 26.137932 4284843885
-1001.3521 -6.2577143 26.161442 4284844404
-998.77533 -6.2746091 26.052105 4284976243
-996.22455 -6.2700663 25.889751 4285239155
-993.93011 -5.9123931 26.093412 4285239931
-992.40698 -5.2269249 27.28479 4285568381
-978.28125 -5.3090682 25.789745 4283783250
-976.2323 -7.3596535 26.276611 4284045911
-1030.3014 -3.4588401 25.215734 4284316261
-1028.6526 -3.7486508 25.460613 4284316261
-1026.2308 -3.5279019 25.8862 4284382313
-1023.8187 -3.6371906 25.826019 4284448107
-1021.299 -3.6414878 25.819677 4284513638
-1018.6307 -3.7125649 25.996468 4284513898
-1016.2208 -3.7534289 26.069807 4284579434
-1013.847 -3.7874768 26.106617 4284448364
-1011.2486 -3.7835238 26.071493 4284579947
-1008.6257 -3.8346121 26.178328 4284645740
-1006.2232 -3.7673793 26.364697 4284580717
-1003.8328 -3.7069895 26.434507 4284712046
-1001.2686 -3.6100719 26.663988 4284712817
-998.6593 -3.6054647 26.884871 4284975217
-996.2179 -3.7591276 26.77742 4284975728
-993.96246 -3.675101 26.885534 4285042291
-992.27399 -3.6839855 27.293966 4285370742
-980.92108 -3.0259025 25.41955 4282796606
-978.99249 -4.4620247 25.571289 4283651147
-1026.0507 -2.110894 25.324114 4284382314
-1023.6472 -1.8938771 25.226234 4284513385
-1020.9482 -1.6196902 25.305653 4284382564
-1018.6785 -1.5437237 25.546659 4284513640
-1016.1637 -1.3501228 25.573969 4284448363
-1013.7794 -1.1704589 25.751232 4284382570
-1011.2656 -1.3078294 25.991911 4284514411
-1008.7087 -1.3324355 25.999517 4284448621
-1006.302 -1.2658528 25.976179 4284645996
-1003.7623 -1.1959456 26.099194 4284514923
-1001.1566 -1.3345374 25.874126 4284843116
-998.72119 -1.2753739 26.287889 4284778354
-996.3537 -1.1882052 26.175407 4284712814
-993.75775 -1.1363434 26.520477 4284778864
-991.16211 -1.1506435 26.767727 4284910195
-989.30243 -0.70921206 26.603418 4284844659
-983.38165 -1.0873142 25.892405 4281876276
-981.72278 -1.5235792 25.52441 4282139703
-1025.8876 1.6986595 25.166292 4284447597
-1023.6513 1.7551153 25.088943 4284513642
-1021.4357 1.7038047 25.034336 4284512870
-1018.7914 2.2617168 25.098267 4284710247
-1016.0237 1.1547623 25.026701 4284578922
-1013.5989 0.93142736 25.396961 4284448363
-1011.0691 0.93323016 25.436199 4284645222
-1008.5322 1.0678054 25.64786 4284579946
-1006.3571 1.2218267 25.67293 4284580460
-1003.6987 1.1777366 26.06661 4284514926
-1001.2101 1.2502693 26.300062 4284777323
-998.81006 1.1745366 26.48534 4284646256
-996.33679 1.3258849 26.212389 4284712046
-993.74652 1.2349223 26.58246 4284778097
-991.25305 1.2857606 26.540913 4284778095
-988.83783 1.2251067 26.636501 4284646768
-986.20178 1.5035337 26.837553 4283855456
-984.42963 1.1998962 25.584002 4281548331
-1025.8347 2.9909043 25.136423 4284317032
-1023.7209 3.2820604 25.061594 4284448105
-1021.1829 3.2191427 25.075157 4284317036
-1018.8149 3.7424805 25.206491 4284513898
-1016.4355 3.7267644 25.512817 4284513643
-1013.3147 3.8990154 25.512711 4284382828
-1011.2659 3.7698627 25.566526 4284579690
-1008.8545 3.8275669 25.613918 4284579947
-1006.2383 3.7591012 25.577862 4284579948
-1003.7188 3.735899 25.636055 4284580205
-1001.2695 3.7205324 25.854816 4284514924
-998.75427 3.7268806 25.983398 4284645995
-996.16193 3.792629 26.177837 4284514670
-993.70709 3.8539224 26.484632 4284580203
-991.23749 3.7594509 26.869724 4284645995
-988.80017 3.7893422 26.909956 4284646252
-986.38336 3.6764071 27.057846 4284843372
-984.07544 4.0368781 26.423193 4284514923
-1017.7009 5.1694145 25.073151 4284054892
-1016.5797 5.2593069 25.456116 4284382824
-1013.3421 5.2524786 25.346794 4284317295
-1010.9967 5.3946562 25.389774 4284710510
-1008.5693 5.7961082 25.380661 4284514409
-1006.1736 6.0540218 25.400476 4284645224
-1003.7094 6.0297194 25.394035 4284448620
-1001.4004 6.1378384 25.426382 4284317547
-998.8111 6.0436926 25.385073 4284514411
-996.18597 6.2036929 25.381418 4284579945
-993.73492 6.2380724 25.434601 4284448875
-991.29407 6.2763095 25.673729 4284580201
-988.74341 6.1765404 25.880299 4284580460
-986.10309 6.1046038 25.774813 4284646252
-983.82184 6.2580194 26.359669 4284711791
-981.89148 6.7971268 25.583517 4284646253
-1033.1669 8.732935 25.385956 4284383080
-1031.2804 9.0343065 25.321264 4284448362
-1028.6812 9.0535955 25.236166 4284317033
-1026.5355 9.1270647 25.145782 4284382310
-1007.0155 9.3167801 25.106262 4284514666
-1003.8049 7.743515 25.17395 4284120691
-1001.9146 7.7909813 25.108521 4284317801
-999.05408 8.5241413 25.313368 4284448617
-996.06207 8.5289507 25.587954 4284448619
-993.4856 8.8150406 25.901289 4284317544
-991.25891 8.8111181 25.573038 4284448619
-988.63623 8.827816 25.833374 4284514667
-986.18927 8.8549719 25.664362 4284449129
-983.80548 8.7564917 26.012978 4284645997
-981.55859 8.6623087 25.788647 4284975476
-1030.9257 11.009935 25.701889 4284317289
-1028.661 11.24161 25.883982 4284448105
-1026.259 11.262818 25.724558 4284448361
-1023.9361 11.51012 25.730207 4284448103
-1021.3676 11.950786 25.525009 4284448361
-1018.8058 11.445993 25.564035 4284382826
-1016.3419 11.27277 25.385141 4284448104
-1013.8866 11.791841 25.363535 4284513641
-1011.2924 11.848208 25.612841 4284513644
-1008.7112 11.909923 25.622391 4284513896
-1006.5282 11.571876 25.921026 4284317545
-1003.7759 11.865767 25.967945 4284579691
-1001.3016 12.075824 25.67646 4284448366
-998.81195 11.672873 25.346558 4284514154
-995.966 11.625164 25.322227 4284514410
-993.49713 11.317095 25.550488 4284579690
-991.13763 11.154555 25.325459 4284383338
-988.74646 11.214755 25.695068 4284514665
-986.33185 11.231954 25.744289 4284449387
-984.02435 10.951055 25.834311 4284975472
-981.7746 10.235558 25.487377 4286027649
-1030.4629 12.929808 25.347637 4284644718
-1028.7074 13.286862 25.656986 4284382822
-1026.2334 13.625678 25.660528 4284513643
-1023.7715 13.806896 25.719261 4284447850
-1021.1985 13.803097 25.860081 4284382826
-1018.7219 13.750724 25.696245 4284513641
-1016.3652 13.743213 25.618992 4284513898
-1013.751 13.289541 25.371014 4284513641
-1011.2689 13.625012 25.405096 4284513897
-1008.7803 13.262554 25.418404 4284579946
-1006.3053 13.511188 25.725267 4284382570
-1003.6787 13.64695 25.797104 4284579433
-1001.1511 13.741389 25.974421 4284579691
-998.776 13.747499 25.650345 4284448875
-996.26093 13.925459 25.908979 4284513897
-993.685 13.710089 25.848423 4284448617
-991.18579 13.682536 25.69928 4284383341
-988.85303 13.734381 25.424147 4284514921
-986.67456 13.655344 25.522163 4285434999
-1022.9315 15.188565 25.34906 4284578919
-1020.8024 15.604262 25.389605 4284513645
-1018.7209 16.093803 25.50016 4284382826
-1016.1967 16.319645 25.70331 4284448362
-1013.6666 16.239897 25.558645 4284382824
-1011.3876 16.310152 25.70867 4284579179
-1008.8275 17.003042 25.860207 4284448362
-1006.3209 17.074459 25.613436 4284448362
-1004.0072 17.174841 25.239801 4284776301
-1001.2219 15.705865 25.362999 4284579946
-998.63507 16.113194 25.464571 4284513897
-996.31006 16.157139 25.474072 4284448618
-993.64508 16.254089 25.776377 4284448621
-991.20294 16.03697 25.623608 4284646507
-989.28168 15.854319 25.580853 4285172853
-986.89276 15.334361 25.843893 4286159243
-1023.7234 19.637114 25.463522 4284579688
-1021.1066 19.527349 25.375452 4284579692
-1018.7343 19.58692 25.30238 4284644966
-1016.0381 18.612825 25.244844 4284382828
-1013.6807 18.809278 25.288935 4284513896
-1011.3077 18.754942 25.41819 4284513897
-1008.7509 18.667086 25.572237 4284382570
-1006.2075 18.659983 25.563673 4284448362
-1003.721 18.766562 25.589968 4284513896
-1001.4095 19.015446 25.441341 4284514410
-998.64264 18.911003 25.224792 4284579436
-996.16736 18.843195 25.151451 4284514666
-994.00366 18.551208 25.18511 4284515181
-989.95099 17.854126 25.120026 4286683789
-1023.762 20.154732 25.037598 4283989870
-1021.1337 20.5602 25.34618 4284514153
-1018.7719 20.678629 25.293322 4284513897
-1016.1898 21.025925 25.224253 4284317289
-1013.7311 21.183979 25.343512 4284448362
-1011.3412 21.368261 25.21476 4284513643
-1008.6713 21.282028 25.268568 4284382826
-1006.1917 21.272812 25.297413 4284383081
-1003.8062 21.16584 25.462763 4284579691
-1001.2739 21.274593 25.516205 4284514412
-998.68646 21.312414 25.837166 4284514668
-996.48425 21.22884 25.581072 4284777326
-994.65662 20.167316 25.002625 4284844654
-1019.0484 24.903437 25.109903 4284514665
-1013.3101 22.648697 25.045181 4284317036
-1010.9025 22.81988 25.055969 4284448360
-1008.6422 23.03549 25.204334 4284317805
-1006.455 23.462231 25.317902 4284578925
-1003.5624 23.202116 25.242224 4284383341
-1001.2464 23.519001 25.177885 4284514668
-998.88422 23.252134 25.134266 4284646765
-996.88611 22.750317 25.122082 4285567352
-1018.2178 26.090761 25.328762 4284579947
-1016.335 26.357525 25.39854 4284252009
-1013.7781 26.59482 25.284456 4284579691
-1011.2278 26.748945 25.252811 4284448359
-1008.5953 26.785931 25.333546 4284579692
-1006.4464 26.591167 25.332472 4284579692
-1002.7099 26.606117 25.249418 4284843374
-1001.0866 26.185646 25.188438 4285500793
-999.77631 25.369459 25.042379 4285829761
-1016.0489 27.950102 25.203093 4284711016
-1013.6395 28.496687 25.202524 4284448874
-1011.171 28.558247 25.281698 4284383082
-1008.8641 28.549433 25.310101 4284645741
-1006.4822 28.633677 25.275255 4284448875
-1004.1001 28.079569 25.144249 4284909423
-1008.6125 30.309893 25.244162 4284777073
-1006.7017 30.352749 25.228102 4285039729
-1007.5292 33.183334 25.425049 4286158473
-954.1167 -27.770348 28.113251 4285957752
-955.68054 -25.622293 28.244165 4285167983
-954.27917 -26.832708 28.188049 4285298032
-956.9635 -24.285034 29.462646 4284776312
-960.70026 -21.062578 28.462063 4284838256
-959.50739 -22.347849 28.243347 4285495919
-963.01221 -19.230555 28.375956 4285431151
-1000.3176 -16.149164 28.943216 4286095244
-967.44928 -15.302002 27.903564 4283854179
-999.19183 -13.723978 27.812029 4285568632
-970.42682 -12.673195 29.256989 4284970352
-969.19855 -13.885351 28.592041 4284838506
-998.39655 -12.408333 27.643616 4285503600
-997.07422 -10.485405 27.54953 4285109117
-971.99707 -11.504491 29.075989 4284905843
-994.70282 -8.5889406 28.092712 4285438077
-975.64227 -8.3343306 28.43623 4284838762
-974.63477 -8.9598312 28.150879 4284179804
-993.02441 -6.4255753 28.740906 4285831042
-991.98077 -5.7517853 29.999634 4285831291
-977.07526 -7.0421181 28.949341 4284969319
-998.81287 -4.2519584 27.641502 4284975729
-992.8031 -2.8475571 27.564758 4284976491
-991.24219 -3.2682946 27.801838 4285174388
-989.32971 -2.5933456 29.684753 4285175171
-992.8208 -2.1619148 27.551178 4284779121
-991.62128 -2.1309891 27.509872 4285042035
-989.29974 -1.7387772 28.1698 4285239670
-985.47333 -0.32458878 28.460907 4281745716
-983.37427 -1.7351665 28.919434 4282602823
-986.03601 1.0491203 28.51956 4283853911
-985.55524 3.9297771 27.548294 4284843630
-984.75275 4.3798981 27.511902 4284646769
-986.03174 14.502373 27.918945 4286552204
-955.55853 -26.259247 30.36969 4285699452
-958.36359 -23.540649 30.623047 4286157445
-961.05078 -21.005424 31.104197 4285697153
-999.12646 -14.034428 30.23288 4286160775
-969.19708 -13.930092 30.488871 4285630074
-971.08545 -12.2018 31.064342 4285631615
-995.93915 -9.9738693 31.437927 4285505421
-994.61865 -8.8013954 30.832367 4286160774
-979.32977 -5.3938141 30.083496 4284842613
-976.64813 -7.1860733 31.792521 4285167982
-990.61066 -4.1302681 31.742279 4286094992
-988.13147 -0.98820877 31.617462 4286290828
-986.12714 -0.54038674 31.133474 4282998092
-983.1665 -2.0100479 30.811829 4283196245
-999.32538 -15.32771 34.462364 4286357133
-998.47266 -14.089479 34.397549 4286357129
-969.90033 -13.039993 33.450867 4285893500
-994.49365 -9.5039139 34.565796 4286488458
-992.69238 -7.0164337 34.219421 4286291848
-986.58618 -0.51161957 32.669128 4283194452
-998.45068 -16.325216 35.977749 4284909167
-997.33496 -16.704386 35.922852 4284448105
-997.95197 -14.418064 35.723175 4285830014
-997.37073 -13.434971 37.367279 4285831299
-995.56042 -10.959406 36.109627 4285831302
-994.5119 -10.272561 37.198383 4285567096
-993.46039 -8.9580183 36.850727 4285436541
-992.43604 -7.7372932 36.781189 4285697392
-992.12695 -6.9947786 36.339745 4285963400
-980.26025 -5.702446 37.065308 4286618246
-979.72729 -6.6254177 37.104652 4286355593
-990.12427 -4.7343879 37.202862 4285765765
-988.80408 -3.3404708 37.097557 4286027388
-987.88983 -2.0505753 36.938122 4286224259
-986.24396 -1.5210495 37.312866 4285830533
-965.68829 -18.743031 38.975754 4286224774
-997.30756 -15.289062 37.879486 4284382579
-968.13745 -15.55732 37.840576 4286159751
-996.70551 -13.453751 38.707932 4284778352
-995.51471 -11.912355 38.242577 4285040754
-994.17743 -10.583115 38.721577 4284581227
-993.23254 -9.3767033 38.634945 4284713077
-992.03314 -8.3043175 38.659161 4284843120
-990.91071 -6.3892031 38.666 4285237876
-989.61249 -5.1780524 39.273029 4284777836
-980.40955 -5.4902821 39.099182 4286026626
-979.18896 -6.7328415 39.459351 4286356108
-988.75616 -3.8435369 38.699711 4285041523
-986.96533 -2.7808914 39.187805 4285173366
-980.94165 -4.2153854 39.709167 4285303409
-987.03296 -1.7027969 39.075684 4286356103
-959.51385 -23.259918 41.840637 4286225031
-965.96857 -18.68749 41.427845 4286290569
-968.474 -15.736206 41.986267 4286094474
-966.67596 -16.848072 42.216202 4286355594
-996.12518 -13.737132 41.152523 4284579178
-994.89178 -12.511246 41.59436 4284776553
-971.24194 -13.090778 41.2388 4286486923
-969.00781 -14.644855 41.538055 4286224000
-995.27032 -12.35054 40.371704 4284711277
-993.90137 -10.982625 41.332973 4284383596
-992.60565 -9.7427645 41.241718 4284775535
-991.30402 -8.3410168 41.323673 4284448871
-978.29901 -7.718235 41.277191 4286289285
-990.32727 -6.7633762 40.731964 4284514157
-989.36749 -5.9426894 41.224342 4284514667
-980.20032 -6.2614746 40.713257 4286487434
-978.34894 -7.1395416 41.147095 4285961863
-988.20508 -4.2730179 41.28669 4284449136
-986.85663 -3.0737045 41.466042 4284844150
-980.92517 -4.5716476 40.264832 4285697913
-986.32947 -2.0506639 41.185856 4286158979
-983.31818 -2.2891159 42.247314 4285105779
-983.65155 -27.352966 44.618164 4284316519
-957.7865 -25.291702 42.68927 4286486919
-959.76221 -23.149439 43.866535 4286355845
-966.30878 -18.241922 44.181938 4286487176
-964.35004 -19.33007 44.729675 4286486658
-996.45807 -15.399394 43.215778 4284776300
-968.30463 -15.850201 44.478638 4286290567
-967.00537 -17.271893 43.751556 4286552970
-995.62488 -14.032347 43.586746 4284513897
-994.55377 -13.005626 44.067162 4284842344
-970.82178 -13.440493 44.058167 4286290562
-969.37646 -14.688608 43.952587 4286355332
-993.57587 -11.451471 43.530334 4284514159
-992.17676 -10.266148 44.177704 4284318056
-991.00519 -8.9294348 44.05357 4284514150
-989.58295 -7.8146777 44.576355 4284842346
-978.08057 -8.4723091 44.246143 4286224006
-988.68591 -6.3191304 44.102108 4284514925
-982.53339 -5.3802772 44.307659 4286486141
-980.88989 -6.3768263 44.318363 4286421128
-987.74237 -4.7844682 43.834789 4284580202
-986.82391 -3.7094123 43.688969 4284318828
-983.05762 -2.6285934 43.96059 4286025859
-981.33002 -4.3160453 44.056293 4285896066
-984.16614 -2.2328658 44.039173 4286224258
-963.82782 -40.05072 47.491943 4284185191
-970.61853 -37.996315 47.369843 4284381543
-968.61499 -38.477222 47.308075 4284250984
-966.03796 -38.437691 46.927929 4284578407
-963.7038 -38.630051 46.598629 4284381801
-961.69275 -38.380718 46.290504 4284381801
-973.48608 -35.460003 46.704571 4284382055
-971.24133 -36.0863 46.968044 4284513130
-968.75562 -36.169041 46.708656 4284447336
-966.30853 -36.276318 46.56905 4284578150
-963.737 -36.161972 46.797375 4284447588
-961.37994 -36.191837 46.632458 4284447078
-959.48615 -35.656376 46.638577 4284709230
-975.7218 -33.210106 45.861668 4284381801
-973.74976 -33.765388 46.271748 4284447335
-971.20056 -33.755489 46.186932 4284316263
-968.664 -33.714264 46.279297 4284382058
-966.25299 -33.653709 46.579556 4284381544
-963.78009 -33.76123 46.800747 4284578664
-961.27484 -33.71347 46.986195 4284644199
-959.05579 -33.689701 47.143364 4284513128
-957.09064 -32.71991 47.1604 4284513897
-978.01483 -31.120169 46.530998 4284446815
-976.3028 -31.254047 46.095543 4284447337
-973.74567 -31.253242 46.019615 4284447593
-971.26532 -31.23477 46.296314 4284382055
-968.78601 -31.262125 46.245972 4284447848
-966.21497 -31.289223 46.33556 4284316778
-963.68292 -31.29109 46.437382 4284513385
-961.20032 -31.237377 46.525032 4284448108
-958.68182 -31.184702 46.605259 4284317035
-956.39343 -31.137537 46.478447 4284448105
-982.59711 -27.820175 46.661255 4284381799
-981.03674 -28.299599 46.765228 4284447337
-978.44299 -28.352814 47.061684 4284381800
-976.23309 -28.718357 46.768196 4284513128
-973.74432 -28.735416 46.578697 4284447337
-971.2384 -28.749582 46.46534 4284513383
-968.7782 -28.786938 46.380932 4284447851
-966.33484 -28.805101 46.290699 4284382313
-963.79126 -28.731876 46.216202 4284579178
-961.26447 -28.726255 46.385963 4284382825
-958.73889 -28.658064 46.481152 4284579693
-956.27899 -28.809185 46.304863 4285171571
-985.17786 -25.345261 46.71817 4284579174
-983.52014 -26.18923 46.279514 4284381797
-981.29669 -26.283773 46.399738 4284381544
-978.77979 -26.219833 46.393044 4284447335
-976.2348 -26.25462 46.394249 4284382055
-973.80206 -26.307518 46.53558 4284513127
-971.23798 -26.264977 46.773529 4284578664
-968.71051 -26.177029 47.067348 4284579178
-966.15753 -26.152401 46.933403 4284513384
-963.79443 -26.159666 46.696842 4284448616
-961.23932 -26.363586 46.465733 4284579691
-958.90668 -26.256643 46.717308 4285237877
-956.86212 -26.58009 46.49958 4286224007
-987.83112 -23.241364 46.866867 4284381798
-985.93768 -23.6607 46.952358 4284185191
-983.70428 -23.782206 46.830891 4284316518
-981.24829 -23.741297 46.639042 4284250985
-978.72729 -23.830179 46.72813 4284447594
-976.28186 -23.746487 46.790207 4284578918
-974.07404 -23.834187 46.824913 4284381801
-971.07233 -24.021177 47.075893 4284447850
-968.77277 -23.770529 47.176067 4284382569
-966.25989 -23.707045 47.1217 4284448106
-963.70416 -23.749609 47.102341 4284514667
-961.32867 -23.981955 46.996929 4285369464
-959.46191 -24.374439 46.446175 4286552710
-990.56848 -20.71611 46.57235 4284447333
-988.80121 -21.095798 46.895908 4284250982
-986.29279 -21.208496 46.595108 4284382053
-983.80798 -21.28326 46.438564 4284185447
-981.23572 -21.21422 46.589447 4284382057
-978.72717 -21.236658 46.914967 4284513127
-976.21851 -21.180023 46.901752 4284447849
-973.69189 -21.040512 46.900517 4284513385
-971.2063 -21.174585 47.148884 4284382314
-968.73682 -21.298935 47.21349 4284448618
-966.32526 -21.196035 47.188297 4284711533
-963.90253 -21.281239 47.020264 4285763451
-962.17725 -21.77865 47.170166 4286355850
-993.27454 -18.13699 46.537407 4284316776
-991.16254 -18.7458 46.823826 4284250980
-988.70477 -18.744465 46.681213 4284382310
-986.19635 -18.732319 46.165867 4284316772
-983.70862 -18.858526 45.590256 4284316517
-981.2262 -18.859631 45.621399 4284447591
-978.8277 -18.804287 45.768562 4284447847
-976.33313 -18.761768 45.728905 4284513384
-973.79071 -18.731087 45.944637 4284448362
-971.21844 -18.7425 46.395515 4284448617
-968.72345 -18.695301 46.456451 4284908913
-966.63367 -19.004292 46.461655 4285895551
-995.39313 -15.869177 45.875973 4284645478
-993.71912 -16.252262 46.455647 4284382823
-991.28796 -16.297289 46.628414 4284447846
-988.77069 -16.22806 46.593277 4284382312
-986.26569 -16.259043 46.487076 4284382313
-983.75464 -16.260708 45.95816 4284382056
-981.22003 -16.207005 46.25526 4284382567
-978.69379 -16.211752 46.175957 4284448106
-976.18274 -16.234417 46.281418 4284578923
-973.77863 -16.26265 46.40218 4284579436
-971.27063 -16.293644 46.292782 4284974449
-969.05927 -16.469889 45.963127 4286158211
-995.35156 -14.615491 45.395237 4284644968
-993.66754 -13.871475 46.07077 4284317291
-991.25647 -13.742261 46.318352 4284644970
-988.72266 -13.741621 46.414513 4284579182
-986.26331 -13.729497 46.121464 4284513637
-983.75909 -13.842143 45.662533 4284513641
-981.28729 -13.731901 45.965446 4284382316
-978.81189 -13.728388 46.07085 4284448104
-976.2121 -13.750128 46.444042 4284579691
-973.87885 -14.057848 46.774906 4284777327
-971.29871 -14.285594 46.170605 4286289537
-969.50659 -14.849003 45.228943 4286355591
-993.07782 -11.890157 45.855972 4284186479
-991.22174 -11.262751 46.384171 4284448364
-988.76337 -11.247361 46.452602 4284382824
-986.21625 -11.324699 46.171051 4284448103
-983.72455 -11.287296 45.346661 4284448103
-981.24426 -11.281136 45.224899 4284514154
-978.67957 -11.339676 45.43597 4284579692
-976.43842 -11.396583 45.926514 4285237877
-974.83856 -11.895611 46.392803 4285960575
-990.52649 -9.3930101 45.655861 4284383081
-988.73151 -8.8911638 45.724911 4284448873
-986.28113 -8.7827005 46.164013 4284513897
-983.75824 -8.673811 45.775017 4284579433
-981.22119 -8.7044868 45.70298 4284645739
-978.91626 -8.9319458 45.599434 4285369208
-977.03503 -9.2523537 46.056877 4286421638
-987.89789 -6.8320961 45.429489 4284448621
-986.21967 -6.3318367 45.60326 4284579949
-983.82794 -6.1954584 46.155888 4284645996
-981.9613 -6.5456028 45.475998 4285434740
-979.61426 -7.2779961 45.17276 4286224518
-986.0918 -4.3555837 46.314301 4284580969
-983.75049 -3.8392851 46.511787 4286026624
-982.00287 -4.4129114 46.101765 4286421645
-984.11279 -2.3422661 45.042084 4286421891
-970.92664 -37.714294 47.686249 4284447336
-968.52478 -38.57338 47.702179 4284316263
-966.59204 -39.444283 47.690613 4284447338
-964.62109 -39.630749 47.603779 4284184679
-969.76672 -37.199059 47.704132 4284578668
