# .PCD v0.7 - Point Cloud Data file format
VERSION 0.7
FIELDS x y z rgba
SIZE 4 4 4 4
TYPE F F F U
COUNT 1 1 1 1
WIDTH 1120
HEIGHT 1
VIEWPOINT 0 0 0 1 0 0 0
POINTS 1120
DATA ascii
-970.65552 -81.285011 44.736252 4289900199
-968.90192 -81.534134 43.582279 4289703331
-976.64514 -77.811668 44.048889 4289965219
-972.8573 -79.354279 43.825478 4289440936
-971.91998 -79.809151 43.592094 4289571497
-980.75104 -75.384438 44.145325 4290032301
-978.59344 -76.430534 43.845379 4289900714
-977.10431 -77.122414 43.751137 4289768872
-990.66016 -73.189934 43.93502 4293000689
-988.58636 -72.558533 43.8526 4291295475
-985.36456 -72.570831 44.648712 4289900709
-984.02203 -73.717575 43.923286 4289900713
-981.69159 -74.653679 43.710075 4289638060
-988.38397 -71.864159 43.650219 4289834917
-985.97699 -71.92028 43.556839 4289571751
-984.88062 -72.406677 43.770569 4289374884
-1008.5852 -118.49048 45.511639 4286750856
-1007.0229 -118.88712 46.208759 4288591521
-1013.087 -115.26499 45.980408 4288393889
-1011.459 -116.02931 46.899788 4288657566
-1009.7432 -117.00945 46.729126 4288728478
-1013.9758 -114.39417 46.176086 4289121971
-1011.3444 -106.87366 46.707691 4291161050
-1007.337 -100.1933 47.036255 4291029710
-1005.7171 -97.799713 46.925201 4291095000
-1003.7589 -94.649788 47.291443 4291094484
-953.21698 -92.880852 46.265461 4289768616
-951.02332 -93.521538 46.557842 4288912028
-1001.813 -91.378265 47.485107 4291160784
-957.82404 -90.11927 46.443878 4290031267
-955.96515 -90.647827 46.575947 4289900452
-954.18121 -91.909561 46.529049 4289638053
-962.58826 -87.760223 46.732391 4293786853
-961.07831 -87.757179 46.854446 4289966503
-958.89758 -88.710464 46.039871 4289703334
-998.74365 -86.475655 47.364708 4290964434
-965.27472 -85.170799 46.879406 4290426542
-963.47791 -85.757332 46.336658 4290098603
-961.5932 -87.038696 45.714802 4289834912
-967.92853 -83.134239 46.422607 4290164137
-966.65948 -84.192902 46.186291 4290296241
-963.66425 -84.897003 45.385864 4290229419
-996.33716 -82.160255 47.114075 4291160279
-972.72394 -80.176079 47.002319 4290162864
-971.2807 -81.248772 46.531536 4290032041
-969.23492 -82.086365 46.409149 4289769383
-994.07074 -78.607552 47.145447 4290833108
-978.29517 -77.60849 47.298096 4289771976
-976.60754 -78.341988 46.313721 4290229161
-973.71973 -79.577438 46.128304 4290163116
-972.20209 -79.962509 45.197632 4290095530
-991.94855 -75.343719 46.61068 4291030229
-980.87762 -75.740196 46.29591 4290295468
-978.80914 -76.82563 46.213547 4289900460
-991.06812 -74.202324 46.218597 4293065970
-985.74121 -72.9515 46.309784 4290098351
-984.00616 -74.249435 46.22237 4290625981
-981.53448 -74.776421 45.321186 4289835694
-987.80725 -72.000534 46.044426 4290560438
-986.77344 -72.069618 45.742832 4289506982
-1007.9486 -117.72711 47.685791 4289254327
-1005.8716 -118.21435 48.952824 4289782211
-1011.0206 -115.48477 47.987854 4289255363
-1008.8387 -116.49357 48.019161 4289650367
-1006.5085 -117.0638 49.200993 4289979075
-1012.9732 -113.50088 48.921261 4289584578
-1011.4611 -113.72213 49.143616 4289650115
-1009.6644 -114.72128 49.453857 4289715644
-1013.1263 -111.38345 49.135391 4290702032
-1011.7301 -111.3243 49.553654 4289782212
-1013.0036 -109.67792 49.075054 4291095762
-1011.726 -108.80766 48.749146 4290702285
-1010.5524 -106.28729 48.533932 4291096274
-1009.6352 -105.49956 49.010063 4290637265
-1010.3461 -104.6308 49.342041 4291029715
-1008.9081 -103.67609 49.089611 4291030481
-1008.0565 -101.75903 48.987801 4291096020
-1006.9829 -101.04951 49.248775 4290636749
-1007.6021 -99.625511 48.872131 4290570703
-1005.9964 -98.784721 49.097206 4290964946
-1004.8561 -97.764938 49.300415 4290832585
-1005.3382 -96.801163 48.438263 4290833107
-1004.2285 -96.229538 48.705585 4290767567
-951.29425 -96.345505 49.732677 4287531661
-1003.116 -93.968376 48.657825 4290898895
-1002.0234 -93.108025 48.751438 4290504904
-953.07941 -93.291695 48.82645 4290889157
-951.08673 -94.274994 48.655373 4288254357
-1002.9451 -92.307892 48.032135 4291226063
-1001.1587 -91.313179 48.918255 4290767309
-955.69531 -91.073822 48.680347 4290362544
-954.43799 -92.245544 48.30122 4290628545
-1000.5212 -89.710098 49.100666 4290702546
-999.3335 -88.402519 49.103527 4290702029
-961.13159 -88.311607 48.565765 4291418321
-959.3609 -89.054016 48.337723 4290033075
-998.14197 -86.375618 48.338642 4290702030
-997.08978 -85.139015 49.147442 4290373322
-965.45135 -85.395576 48.570202 4291482053
-963.81897 -85.907623 48.74855 4290428341
-997.58508 -84.033173 48.57489 4290964178
-996.44531 -83.628319 48.761799 4290504908
-970.09979 -82.727119 48.889221 4292074198
-968.87708 -83.121895 48.65321 4290888893
-966.69647 -84.757736 48.144024 4291877320
-995.50311 -81.549728 48.288536 4290965203
-994.56659 -80.674026 49.11895 4290570957
-973.26715 -80.420029 48.756901 4291088069
-971.74139 -81.525734 48.463593 4291088578
-969.66327 -82.373543 48.460999 4290032301
-995.01776 -79.679626 48.248779 4290767581
-993.53308 -78.771851 48.733173 4290702284
-992.37091 -77.573593 48.682434 4290044607
-977.9632 -77.979111 48.951332 4291615703
-976.11218 -79.051277 48.418449 4291681236
-974.35181 -79.739677 48.293171 4290823866
-993.14893 -76.930321 48.463795 4291096020
-991.99207 -76.19783 48.898716 4290440144
-981.63635 -75.746742 48.740891 4291484630
-979.17517 -77.046989 48.48143 4290892495
-991.01105 -74.497948 48.473927 4291950827
-987.78247 -72.599861 49.339355 4293525503
-986.62311 -72.761223 48.494492 4292339928
-987.82086 -72.394562 47.917419 4292868599
-987.13647 -72.431992 48.440155 4291620332
-1010.2119 -114.07892 50.026245 4289846976
-1009.2581 -114.25104 51.121296 4289847227
-1010.9374 -110.47704 50.723724 4289716423
-1012.6392 -108.3238 51.289154 4290702034
-1010.9396 -109.41602 51.193848 4289650113
-1010.477 -106.3438 50.789917 4290767051
-1009.3248 -106.01362 51.212616 4289847491
-1008.2499 -103.8042 51.170597 4289913542
-1006.5145 -101.18032 51.586365 4289782469
-1005.8889 -99.233376 50.800549 4290110923
-1004.6726 -98.17379 51.3466 4289650880
-951.65631 -97.567215 50.407654 4286807944
-1003.2359 -96.16333 51.264896 4289716161
-951.21271 -95.903381 50.218102 4287531664
-1002.5646 -94.848717 51.656208 4289650623
-1001.7737 -93.776466 51.403938 4289519038
-953.01807 -93.814522 51.068779 4291220170
-951.93835 -94.496414 50.185921 4287794836
-1000.354 -90.956978 50.698437 4289650885
-999.66321 -90.533142 51.521576 4289650366
-956.1665 -91.358231 50.714622 4292603628
-1000.7489 -89.609543 50.032715 4290899156
-998.98853 -88.967674 51.210918 4289650114
-961.25391 -88.648651 51.451969 4293590782
-998.04022 -87.21196 50.535351 4289716422
-996.88434 -85.517433 51.132175 4289650624
-965.97394 -85.498634 51.33783 4293656062
-964.15503 -86.089516 50.321888 4291878363
-997.5354 -83.655792 50.269165 4290964181
-995.82733 -83.753609 51.154999 4289519040
-970.08392 -83.0093 51.513733 4293656574
-968.7326 -83.58696 51.655437 4293458924
-995.23145 -82.208618 50.068848 4289784266
-994.42651 -81.298355 50.977657 4289781952
-973.03876 -80.990829 50.407837 4293197301
-993.08008 -79.221931 51.045444 4289650371
-992.27191 -77.825684 51.907288 4289977791
-978.2666 -78.077789 51.023838 4293129972
-975.86279 -79.500687 50.66563 4293394431
-974.85339 -79.937256 50.044006 4292738815
-991.16187 -76.030441 51.362736 4289782986
-981.29089 -76.389793 50.970093 4293656575
-988.21362 -73.324677 51.579041 4293656575
-987.07294 -72.756317 50.891907 4293591039
-1007.3701 -114.63362 52.997681 4289913283
-960.6842 -111.54018 54.954651 4286545504
-1012.8649 -108.32449 53.343262 4290964178
-1010.5836 -107.43805 52.564636 4290241982
-1008.8492 -106.2284 53.355202 4289847489
-958.14337 -106.81699 54.759155 4287345569
-1007.795 -104.29305 53.488945 4289387972
-1007.1044 -102.85927 53.806694 4289584576
-956.54327 -104.41798 54.835999 4287799931
-1006.0859 -101.38631 53.526871 4289519297
-1005.0576 -99.515945 53.259186 4289387971
-1004.1562 -98.595299 53.641472 4289452738
-952.99548 -99.160919 53.167358 4287537051
-1003.0309 -97.040123 53.617432 4289322436
-1002.442 -95.441368 54.27771 4290043320
-952.77649 -95.431244 54.189453 4291093993
-1001.308 -93.785706 53.738041 4289453245
-953.12891 -94.226562 53.433308 4291682788
-1000.5491 -91.686646 53.842937 4289453511
-999.64227 -91.123489 53.910233 4289650110
-998.45142 -88.998398 54.195671 4289518274
-960.92285 -89.106628 53.47757 4293591038
-997.67004 -87.449379 53.257446 4289584063
-996.43427 -85.478806 53.72364 4289518780
-966.17657 -85.646004 53.288361 4293591039
-964.99072 -86.408897 53.490887 4293787645
-995.35657 -84.027473 53.831367 4289321920
-994.60199 -82.980362 54.042831 4289781441
-970.07611 -83.103592 53.159119 4293656575
-969.23126 -83.49585 53.609344 4293722111
-993.73157 -81.060989 53.464424 4289650113
-971.4325 -82.133194 53.666565 4293591038
-992.73822 -79.325531 53.719196 4289257411
-992.03564 -78.062546 54.115707 4289650108
-980.53778 -77.566208 54.514404 4293656574
-979.07538 -77.850235 53.725842 4293525501
-990.9342 -76.474907 53.927067 4289650370
-983.24103 -75.939224 54.710491 4293656574
-980.55035 -77.10186 54.464233 4293656575
-990.31213 -74.904968 52.927856 4291032019
-989.44104 -74.219017 53.706787 4292804341
-1025.2324 -154.70512 56.666729 4291160530
-1024.8669 -154.50348 57.19101 4291226323
-971.3952 -128.41547 56.205948 4286813053
-969.95087 -126.31001 56.53006 4286412897
-968.56152 -123.45553 56.372692 4287144614
-966.46179 -119.80463 55.563782 4288726190
-1004.5733 -115.28432 55.325012 4289783250
-963.73413 -115.99632 56.180969 4286154126
-961.86676 -113.20102 55.994553 4285888624
-960.96161 -111.29335 55.714161 4287210646
-1010.0425 -108.92936 55.924194 4289912259
-1009.3346 -108.1888 57.112579 4289781185
-958.6405 -107.54323 56.603241 4286417791
-1008.0099 -105.91511 56.387314 4289847233
-958.49048 -106.89098 56.489655 4288260253
-1007.5067 -104.35251 55.513489 4289323212
-1006.7401 -103.31042 56.410927 4289716420
-956.8999 -104.3925 56.89032 4287076501
-1005.4651 -101.31416 56.230408 4289847741
-1004.9033 -100.17786 56.376038 4289650368
-955.00653 -100.96918 57.495422 4287211934
-954.76318 -101.11942 56.186584 4287405713
-1003.6119 -98.61972 56.316811 4289519041
-953.552 -98.872948 56.370445 4288195483
-1002.6693 -96.975586 55.924622 4289322437
-1001.9902 -95.815453 56.461212 4289650367
-952.82874 -95.30751 57.182617 4291555575
-1000.6627 -93.790451 56.585838 4289518785
-953.60297 -94.188828 57.119095 4293394430
-999.07507 -91.088974 56.463299 4289650371
-998.00555 -89.033699 56.106377 4289584065
-997.03552 -87.542694 57.027405 4289846720
-962.93396 -88.143486 57.117313 4293722110
-961.37585 -89.322868 55.668804 4293656574
-996.3136 -86.380463 56.613979 4289519044
-966.0274 -86.060829 56.688946 4293525503
-964.03809 -87.182884 56.628967 4293722110
-995.37427 -84.584602 55.845398 4289321411
-994.34308 -83.37352 56.072227 4289650114
-971.7951 -82.912064 56.907238 4293656574
-993.36316 -81.377319 56.420692 4289519560
-972.24365 -82.193565 57.215057 4293525503
-992.77075 -79.834976 55.956909 4289649593
-991.85004 -78.667603 56.449936 4289453507
-980.67175 -77.649719 56.47937 4293722109
-979.09863 -78.112541 56.418053 4293656572
-990.52545 -76.589287 55.843052 4289781956
-989.86523 -75.256508 56.924297 4289847744
-983.76379 -76.005562 56.324497 4293722109
-980.84174 -77.271759 56.864136 4293787647
-988.94531 -74.579803 55.991673 4292409829
-1024.7484 -154.53714 58.899445 4290963672
-1023.8293 -151.88362 58.667671 4291096019
-977.77338 -131.61987 58.329102 4289780661
-977.44165 -131.61197 58.318909 4289977276
-981.14166 -129.71225 58.404358 4289781449
-972.00745 -128.54872 58.580128 4287669908
-970.95135 -126.31755 59.056774 4287934624
-969.97107 -125.31155 57.770416 4288588692
-986.02008 -122.75569 59.759247 4290375376
-983.4137 -124.18401 59.768204 4290177744
-981.96545 -124.07534 59.784538 4290110923
-978.6087 -124.1037 59.746521 4289716428
-974.2326 -124.13991 59.805714 4289583813
-971.36346 -124.47198 59.883362 4289451195
-969.375 -123.52591 58.722984 4288922284
-989.62732 -120.95972 59.902466 4290508763
-986.58844 -121.40418 59.713314 4290375380
-967.04669 -120.245 58.465343 4287934119
-967.01825 -119.63934 58.460163 4288793273
-1002.6899 -116.55342 59.653748 4290441937
-964.08429 -115.55569 58.552795 4287930273
-998.26129 -114.25171 59.760822 4290440137
-992.27844 -114.37713 59.989624 4290374346
-987.84833 -112.78394 59.739429 4289913806
-986.13995 -112.76054 59.733303 4290110403
-984.40076 -112.71647 59.778343 4289716682
-962.66663 -112.8941 59.635956 4287275172
-962.32458 -112.93942 57.593201 4288261505
-984.10645 -112.24866 59.624084 4289782218
-980.57129 -112.25746 59.544647 4289781454
-976.41919 -112.43483 59.925491 4289911229
-962.68665 -112.17747 59.969452 4288989872
-961.2619 -110.6558 58.617737 4287999388
-1008.8674 -108.01307 59.08223 4289715905
-1007.9691 -106.45914 58.690487 4289781957
-1007.2459 -105.27853 59.139111 4289585343
-959.00977 -106.83426 58.730133 4288329644
-1006.4222 -103.65192 58.859501 4289650371
-957.27368 -103.92862 59.607727 4288722078
-1005.1183 -101.29308 58.407501 4289585605
-1004.4636 -100.4836 59.322594 4289846971
-996.09216 -101.56891 59.721863 4289256387
-991.62115 -101.28278 59.731449 4289584072
-989.258 -100.88455 59.609436 4289714883
-986.82983 -100.82548 59.525085 4289846201
-984.45184 -101.11777 59.463779 4289452997
-980.86407 -100.70702 59.628368 4289780169
-978.2251 -100.36688 59.394085 4289977022
-971.10034 -100.33707 59.863739 4289257667
-955.24628 -100.70997 58.392284 4288527270
-1003.4178 -99.070938 58.746857 4289584322
-1001.4434 -97.823128 59.830097 4289583809
-998.0694 -98.313843 59.482018 4289715392
-995.44849 -98.342278 59.751881 4289387200
-994.66583 -98.322884 59.724815 4289518269
-990.68933 -97.799629 59.773438 4289321409
-989.8847 -98.087563 59.48299 4289517501
-985.99915 -98.17012 59.441326 4289583555
-982.7384 -97.970833 59.323223 4289386951
-981.59692 -98.063766 59.476486 4289518530
-978.25403 -99.056953 59.732086 4289517761
-964.34229 -99.316498 59.844574 4289321923
-955.23755 -99.590805 59.669067 4289254078
-954.30725 -99.004219 58.322533 4288922287
-1001.5472 -96.32473 59.355652 4289584323
-998.3559 -97.311119 59.711212 4289845698
-995.20996 -97.231628 59.602234 4289452477
-993.44061 -96.936058 59.856304 4289517760
-990.63702 -96.997581 59.66103 4289714877
-988.84924 -96.699059 59.664715 4289583815
-986.17139 -96.937729 59.277332 4289779903
-983.13318 -96.721497 59.414196 4289583301
-981.63275 -96.802765 59.261986 4289780160
-976.44531 -96.378029 59.7663 4289649094
-972.69904 -96.057358 59.995178 4289584581
-970.5556 -96.136925 59.508881 4289649598
-968.96167 -95.910385 59.597252 4289715653
-966.21954 -96.072723 59.729916 4289649603
-953.99933 -95.324547 59.119804 4292016874
-1000.5244 -94.162712 58.810066 4289584327
-999.55634 -93.071022 59.295429 4289781442
-994.1615 -92.628769 59.704453 4289452734
-954.13562 -94.267601 58.521313 4293525245
-998.58142 -91.305588 58.90654 4289519045
-995.83203 -90.787086 59.481258 4289584070
-993.84778 -91.169228 59.550117 4289452482
-992.23126 -90.514442 59.495972 4289781185
-988.13654 -91.380714 59.491116 4289583547
-986.31708 -91.231216 59.545097 4289452226
-983.79095 -91.571289 59.215313 4289780416
-981.77899 -90.692299 59.801369 4289649602
-978.43878 -91.804337 59.761703 4289714878
-960.92834 -90.00264 57.517212 4293787647
-997.76245 -89.759697 58.407898 4289584323
-996.50989 -88.993195 59.175804 4289584324
-994.24164 -89.557831 59.61171 4289780924
-992.06464 -89.971191 59.994202 4289453255
-985.10956 -89.976608 59.822998 4289845941
-983.7923 -89.970963 59.427334 4289518276
-980.97443 -89.657799 59.96286 4289846205
-975.43359 -88.398521 59.929565 4289518790
-974.87958 -88.494308 59.912415 4289911492
-972.25049 -87.756668 59.941895 4289257162
-968.19342 -87.9133 59.739517 4290110155
-966.38306 -87.838669 59.685429 4291621860
-963.5705 -88.414146 58.846916 4293656572
-962.10675 -89.505051 58.393024 4293394172
-995.6745 -86.193207 58.966278 4289715648
-994.73065 -85.253319 59.810852 4289911998
-989.20898 -85.428772 59.520794 4290043067
-985.55823 -85.316132 59.866699 4290172866
-967.65839 -86.216629 59.343712 4293262837
-966.52704 -86.496292 58.906807 4293525244
-964.72089 -87.136116 58.989796 4293591039
-995.24109 -84.928986 57.961426 4289846205
-994.23639 -83.822823 58.663227 4289518276
-989.22736 -84.432594 59.783024 4289518281
-985.80933 -84.473892 59.458233 4289386691
-973.30603 -83.403336 59.657394 4292080868
-971.44403 -83.583199 59.012909 4293459707
-968.35895 -84.702209 59.728455 4293722111
-993.0036 -81.706612 58.656204 4289584586
-992.25909 -80.479271 59.260948 4289912002
-972.96094 -81.799614 59.035889 4293459967
-972.39966 -82.389168 58.038971 4293722111
-991.32214 -78.543823 58.932934 4289715394
-984.42365 -77.827103 59.852234 4289847233
-980.57037 -78.062218 58.799393 4293591037
-979.70782 -78.441338 58.563896 4293525500
-976.10455 -79.584412 59.534546 4293591039
-990.30609 -76.806984 58.516602 4289781704
-989.40521 -75.749908 59.071812 4289650889
-985.48956 -75.395317 59.349895 4292935412
-984.09875 -76.314102 58.984188 4292869105
-981.8385 -77.164474 58.991142 4293591038
-988.41193 -74.582191 58.800896 4291556314
-985.63953 -74.576492 59.259518 4293459967
-984.53223 -74.915482 58.1073 4293722111
-976.21454 -130.62305 61.25948 4289649088
-974.77655 -130.52208 61.92395 4289386682
-980.41571 -127.95546 61.937336 4289912256
-978.63318 -128.54111 62.033539 4289780679
-977.27234 -129.12015 62.020184 4289387204
-972.92023 -128.21255 61.693932 4289384373
-982.72888 -125.9185 62.024933 4290176454
-981.2215 -126.23869 61.920635 4289847495
-978.70251 -126.21084 61.488064 4289846724
-976.19293 -126.21232 61.327576 4289583811
-973.75153 -126.05862 61.242577 4289649088
-971.84064 -125.9486 60.719654 4289385657
-987.7326 -122.89253 62.091747 4290574302
-986.18353 -123.12856 61.307442 4290638289
-983.78809 -123.83607 61.332165 4290243022
-981.17218 -123.79449 61.247185 4289979082
-978.73962 -123.77062 61.338028 4289847240
-976.32068 -123.70312 61.021431 4289715139
-973.75043 -123.90823 60.54023 4289649090
-971.19824 -123.79153 60.440266 4289451971
-969.69324 -122.81044 60.274841 4289779388
-991.17151 -120.27159 62.154991 4290575322
-988.59558 -121.18 61.097206 4290835668
-986.16724 -121.33679 60.485462 4290375122
-983.75378 -121.24172 61.13736 4290308554
-981.23114 -121.16161 60.985424 4289979082
-978.85852 -121.25377 61.332088 4289913032
-976.20721 -121.03072 61.620949 4289715397
-973.6261 -121.11067 62.033661 4289714887
-970.37744 -121.00014 61.879906 4289714626
-969.23975 -120.92646 61.809875 4289517243
-1002.6282 -117.54916 60.526611 4292411371
-995.62781 -117.86788 62.300842 4291034329
-993.93359 -118.13961 62.30019 4290575067
-990.36835 -119.79762 62.121357 4290574289
-988.78314 -119.92648 61.468163 4290769874
-985.81738 -119.88551 60.93338 4290243527
-983.83362 -119.83848 60.844139 4290177997
-981.18762 -119.7679 60.772171 4290110660
-978.69592 -119.70528 61.525696 4289978313
-976.31409 -119.62435 61.729523 4289846978
-973.29486 -119.5684 61.864079 4289583556
-971.16803 -119.3571 61.832905 4289518273
-968.77606 -119.31287 61.656792 4289648575
-967.27649 -118.9725 60.460289 4289253822
-1002.6421 -117.24477 60.377502 4291623386
-1000.6363 -115.24844 62.003948 4290704591
-998.75171 -115.39687 61.658401 4290507218
-996.12494 -116.1818 61.499268 4290835921
-993.37451 -116.17213 62.110371 4290441938
-991.70728 -115.8224 61.633251 4290309581
-965.73022 -116.12732 62.023499 4289319098
-964.92889 -115.17838 61.956055 4289448881
-1005.3956 -112.52298 60.791199 4289717198
-1003.3884 -113.26241 60.764427 4289979589
-1001.1454 -113.89153 61.089985 4290177482
-998.77637 -113.98218 60.805134 4290177739
-996.31586 -114.0174 61.097401 4290375120
-993.69159 -113.85675 61.259846 4290309326
-991.19946 -113.7965 61.115665 4290177229
-988.89337 -113.75932 61.485504 4290242762
-986.33429 -113.76567 61.298828 4289979336
-983.74005 -113.25979 61.556595 4289979083
-981.15741 -113.47927 61.451298 4289913031
-978.67371 -113.35379 61.713707 4289846978
-976.24048 -113.30847 61.244968 4289780935
-973.66339 -113.2806 61.510334 4289780675
-971.31885 -113.32034 61.280865 4289649091
-968.76013 -112.96992 61.928135 4289583554
-967.04077 -112.95663 62.07584 4289648322
-964.10406 -113.24335 61.709545 4289056698
-1007.9712 -110.43444 61.19334 4289715655
-1006.0886 -111.03284 61.258549 4289716162
-1003.8512 -111.34553 61.617676 4289913539
-1001.3943 -111.11794 62.192722 4289848776
-998.90479 -110.89527 62.2663 4289848264
-995.77039 -111.20215 62.062012 4290176710
-994.47864 -111.42574 62.034206 4290111178
-991.63214 -112.4007 61.110126 4289914571
-986.03369 -111.59875 62.119286 4290175685
-983.35022 -111.48221 61.52459 4289847751
-981.23541 -111.93427 60.964626 4289847234
-978.70111 -112.04908 60.905365 4289716169
-976.16675 -111.97293 60.520699 4289846466
-973.88568 -112.00977 60.791786 4289452742
-971.24225 -111.97169 60.392616 4289714626
-968.76837 -111.87801 61.68465 4289518276
-966.23358 -111.66798 61.80201 4289649091
-963.86169 -111.57898 61.941978 4289517503
-962.06787 -110.76765 61.223106 4288792245
-1008.2498 -108.81268 61.491695 4289781698
-1006.2651 -108.65812 61.935596 4289650628
-1003.6802 -108.63937 62.106892 4289913026
-1001.2009 -108.70894 62.074726 4289716422
-998.57056 -108.77824 61.852875 4289781955
-996.30255 -108.85819 61.674419 4289782215
-993.81512 -108.33409 61.893169 4289847751
-991.22247 -108.33485 62.151234 4289716678
-989.18457 -108.3073 62.098991 4289781956
-986.75739 -108.54606 62.217682 4289585095
-983.42145 -108.89075 62.264141 4289716168
-982.27692 -108.43316 62.235352 4289977796
-976.24146 -107.65137 62.093994 4289518534
-974.6922 -107.79041 62.488953 4289322185
-970.81793 -107.6739 62.106041 4289452488
-968.74725 -108.00212 61.622993 4289845951
-965.53284 -107.78927 62.266586 4289649348
-962.80878 -107.81661 62.063477 4289517760
-961.8042 -108.32784 61.88903 4289582528
-1007.857 -107.07665 60.70594 4289585350
-1006.2231 -106.26888 61.476875 4289585087
-1003.6635 -106.18343 61.110744 4289650371
-1001.2495 -106.36156 61.473877 4289715908
-998.62933 -106.06234 61.714058 4289716424
-996.25464 -106.38223 61.799004 4289912771
-993.91852 -106.40141 61.895065 4289781959
-991.65863 -106.95306 62.074669 4289847234
-989.52441 -106.91861 61.860149 4289650124
-986.11621 -106.89558 62.270279 4289584582
-975.83154 -107.20229 62.330284 4289452743
-974.54706 -107.16195 62.076458 4289714882
-970.91888 -106.98159 61.994892 4289649088
-968.84387 -107.13023 61.360245 4289518274
-966.15955 -106.55637 62.208111 4289649093
-963.59723 -106.16611 61.839317 4289518017
-961.31573 -106.01462 62.060516 4289583555
-959.38452 -105.96358 61.20401 4289121976
-1005.7678 -104.152 60.690147 4289650631
-1003.8843 -103.69315 61.174652 4289846979
-1001.2406 -103.77165 61.817997 4289584582
-998.77515 -103.68195 61.906067 4289781188
-996.38202 -103.59838 62.022945 4289715652
-994.00439 -103.56849 61.882977 4289649861
-991.17651 -102.87722 61.749344 4289649601
-989.10065 -102.78904 61.871616 4289256388
-986.62567 -102.63615 62.259033 4289452996
-984.03619 -102.74001 61.778545 4289649090
-981.31128 -102.66568 61.875881 4289650119
-979.6701 -102.78296 62.04533 4290174400
-976.28302 -102.57391 62.078979 4289584585
-972.61725 -102.87612 62.488445 4289649346
-971.6543 -103.04818 62.459343 4289452224
-968.52203 -103.05834 62.276489 4289518019
-966.32599 -103.2713 62.197491 4289583808
-964.83887 -103.7757 62.234577 4289583809
-958.37787 -104.01255 61.61227 4289319356
-957.01056 -102.51154 62.320068 4288660123
-1005.009 -101.76221 60.595112 4289715660
-1003.6125 -101.33418 61.705166 4289584579
-1001.2468 -101.25292 61.974857 4289649856
-998.73303 -101.22019 61.337593 4289649859
-996.24915 -101.27533 60.78233 4289649859
-993.71979 -101.26836 60.986897 4289715392
-991.1452 -101.39822 60.813736 4289518533
-988.73334 -101.51728 61.032677 4289715137
-986.2243 -101.549 61.300705 4289518019
-983.5387 -101.48419 61.117401 4289583810
-981.2821 -101.43195 60.725334 4289649602
-978.73944 -101.27483 60.93428 4289649860
-976.25592 -101.24361 61.07906 4289584066
-973.70764 -101.24344 61.074177 4289583555
-971.2818 -101.38057 61.232685 4289518016
-968.86121 -101.16438 61.765598 4289649089
-966.38849 -100.96633 61.949848 4289583552
-964.1936 -100.65634 61.883144 4289649089
-961.58655 -100.39812 62.061405 4289386433
-958.59821 -100.24815 62.093266 4289452229
-956.64294 -100.82234 61.849167 4289188026
-1002.9759 -99.556702 60.960651 4289519040
-1001.2538 -98.865974 60.885826 4289649856
-999.03979 -98.889412 60.67115 4289518534
-996.42548 -98.758659 60.423866 4289649600
-993.60864 -98.723228 60.451359 4289583808
-991.3324 -98.778214 61.264912 4289452479
-988.69598 -98.711143 61.395058 4289518015
-986.38043 -99.037193 61.357548 4289649347
-983.77393 -98.656128 61.277748 4289649344
-981.18939 -98.65696 60.975777 4289649859
-978.79114 -98.609978 60.911053 4289714882
-976.26556 -98.479706 61.176903 4289649346
-973.8689 -98.474457 61.36797 4289583810
-971.11694 -98.69368 61.133789 4289583550
-968.74335 -98.867119 61.293606 4289649348
-966.21466 -98.781136 61.289661 4289649087
-963.65442 -98.864311 61.400486 4289584068
-961.24194 -98.79464 61.447109 4289649090
-958.73535 -98.776535 61.424309 4289518019
-956.37946 -98.639877 61.669323 4289518017
-954.71545 -98.072235 60.877518 4289517759
-1000.6647 -96.377525 60.663605 4289583811
-998.77454 -96.185814 60.820484 4289518530
-996.25891 -96.110023 61.011349 4289583810
-993.66846 -96.013336 60.954311 4289583553
-991.64441 -96.242043 60.994564 4289648830
-988.76483 -96.595909 60.816109 4289583814
-986.67639 -96.374229 60.829433 4289583816
-984.27753 -96.304146 60.846992 4289452486
-981.00073 -96.379433 60.45409 4289649349
-978.80438 -96.308311 60.939007 4289583810
-976.1687 -96.342529 60.629105 4289649092
-973.75226 -96.445335 60.639076 4289780674
-971.45581 -96.492264 60.678604 4289518275
-968.66888 -96.600174 60.904205 4289780673
-966.28363 -96.572067 60.643597 4289518017
-963.7771 -96.282677 61.409496 4289583811
-961.24609 -96.312332 60.972218 4289584065
-958.77911 -96.195404 61.088188 4289584066
-956.32965 -96.239082 61.120384 4289584322
-954.33875 -96.281113 60.900383 4289847495
-1000.2779 -94.665634 61.054245 4289781183
-998.6012 -93.868996 61.026421 4289649857
-996.23499 -93.62339 61.388027 4289518531
-993.73572 -93.670685 61.168804 4289649344
-991.60638 -93.556404 61.856819 4289452482
-988.92035 -93.479408 61.762203 4289452481
-986.112 -93.118828 61.483589 4289518016
-983.84302 -93.599503 61.586372 4289583556
-981.08667 -93.476944 61.978561 4289780416
-978.89691 -93.717926 61.579659 4289583813
-976.07831 -93.993416 61.168079 4289714626
-973.73419 -93.816872 61.080986 4289649348
-971.58856 -93.798317 61.043045 4289583549
-968.82507 -94.035873 61.809807 4289321926
-966.09607 -94.276321 61.813255 4289649599
-963.71674 -94.288734 61.887108 4289650117
-961.15521 -94.477173 61.525333 4289584578
-958.6991 -93.959038 61.540779 4289650626
-956.00146 -93.839432 61.276237 4291818979
-954.89374 -94.0411 60.20327 4293263094
-998.01184 -91.758698 60.336441 4289584584
-996.43567 -91.548912 60.427589 4289715136
-993.42792 -91.369446 60.329147 4289452479
-991.14587 -91.336861 60.961182 4289583553
-989.12677 -91.586983 60.682701 4289452742
-986.24591 -91.338417 60.737961 4289452482
-983.10175 -92.4338 60.499084 4289780163
-981.18518 -91.420753 60.863251 4289649346
-978.85864 -91.251556 60.620434 4289715136
-976.25812 -91.244675 61.424744 4289583555
-973.98212 -91.277199 61.064774 4289715394
-971.19287 -91.094215 61.565918 4289649604
-968.59894 -91.083221 61.927216 4289715908
-966.21051 -91.10791 61.794193 4289781186
-964.05658 -91.055893 62.035851 4289716166
-960.77319 -90.825829 61.883495 4291950049
-959.14178 -90.812714 61.566708 4293262838
-956.12433 -91.999237 61.847267 4293591038
-995.84906 -88.226624 61.527275 4289715391
-993.1416 -88.821388 61.259846 4289518274
-991.13855 -88.945824 61.389507 4289649344
-988.77612 -89.157013 61.43734 4289649087
-986.28986 -88.939995 61.284718 4289649343
-983.79175 -88.583122 61.262341 4289583558
-981.40784 -88.857414 61.011147 4289649599
-978.69464 -88.828041 61.070614 4289584065
-976.30731 -89.016052 60.960419 4289780673
-973.5899 -88.844925 60.66922 4289715651
-971.25653 -88.794441 61.045113 4289650116
-968.86334 -88.717712 61.242329 4289716164
-966.22833 -88.80143 61.148579 4289979597
-964.08337 -89.021294 61.099709 4291556575
-961.62085 -89.891693 61.684509 4292738807
-995.48322 -86.561768 61.563835 4289452997
-993.50739 -85.91243 61.507614 4289649345
-991.42792 -85.662277 61.775806 4289452486
-988.74182 -85.499046 61.155674 4289780672
-986.48383 -86.01236 61.758743 4289583555
-983.69629 -85.98938 61.672947 4289583810
-981.24127 -85.938026 62.023788 4289780674
-977.79858 -85.817368 62.084831 4289584583
-976.12891 -85.85141 62.00423 4289912002
-973.81927 -86.081261 61.479004 4289650372
-971.02948 -85.972244 62.058632 4289913539
-968.8894 -86.147041 61.264072 4291490270
-966.31213 -87.108406 60.282001 4293132023
-993.2348 -83.866798 60.956673 4289518273
-991.20081 -83.922569 61.000656 4289584064
-988.64709 -83.676636 61.018463 4289649859
-986.23279 -83.816498 61.356819 4289715139
-983.76794 -83.668777 61.495197 4289584066
-981.26471 -83.765854 61.507988 4289649862
-978.72937 -83.690804 61.474705 4289716164
-976.20544 -83.724823 61.053654 4289585094
-973.82227 -83.987831 60.895187 4290439112
-971.3479 -84.475365 61.147282 4291687902
-969.14154 -84.69606 61.167198 4293591039
-992.57599 -82.053055 60.663483 4289518785
-991.21564 -81.211838 61.420029 4289584063
-988.7182 -81.27562 61.424583 4289584580
-986.32819 -81.192772 62.121132 4289649860
-983.98132 -81.242195 62.110798 4289584583
-981.03784 -81.783821 61.930531 4289847234
-978.88702 -81.901428 61.628487 4289519302
-976.02643 -81.946014 61.234749 4291162328
-974.07648 -82.004967 61.58123 4292935412
-990.76733 -79.066765 60.825016 4289650631
-988.74292 -78.831062 61.752609 4289781698
-986.20441 -78.728149 61.280563 4289650375
-983.76648 -78.769691 61.268341 4289913027
-981.40668 -78.314705 61.308086 4291556573
-979.5719 -78.812828 61.602051 4293000685
-976.09186 -79.714127 60.453552 4293591039
-990.05219 -77.291466 60.484783 4289781955
-988.62714 -76.452614 61.476124 4289650886
-986.35608 -76.274017 61.281181 4290241735
-983.77173 -76.948402 60.465084 4291818717
-982.44446 -77.222778 60.281311 4293328631
-987.9068 -74.572388 60.786053 4290900183
-986.9776 -74.438873 61.039608 4292606956
-975.76825 -130.06976 62.96706 4289649092
-978.77808 -128.73952 62.708313 4289912005
-976.02716 -128.52318 63.667198 4289583297
-974.16876 -128.17456 63.876804 4289517506
-983.60089 -125.62341 64.224403 4290110921
-978.48242 -127.36721 62.735878 4289650122
-976.43811 -127.20539 63.262814 4289518531
-973.69128 -126.9057 63.18623 4289649347
-988.26678 -123.08134 63.729073 4290903259
-986.42175 -123.47948 63.581535 4290704595
-984.15784 -124.29827 63.652699 4290111949
-980.24475 -123.17303 62.505554 4290175690
-992.8219 -120.30637 64.382812 4291231712
-991.43378 -120.56673 63.6605 4291165403
-988.92664 -122.00854 63.089096 4290902494
-984.89948 -121.96843 62.639343 4290308568
-973.90375 -121.13088 63.213642 4289846210
-971.67804 -121.1048 63.075581 4289714883
-969.15289 -120.71931 62.78772 4289518013
-1002.5102 -117.91036 63.104919 4292870139
-995.93604 -118.08634 63.429569 4290969054
-993.66132 -118.54774 63.809818 4290968536
-991.37463 -118.66074 63.594635 4290705365
-988.73645 -118.31181 64.069305 4290441426
-986.28424 -118.19192 64.052505 4290308811
-983.8147 -118.14315 63.86924 4290046158
-981.21143 -117.96302 64.717072 4290044873
-978.60046 -118.21419 64.214584 4289847496
-976.13391 -118.24399 64.344368 4289978050
-974.23505 -118.73621 63.749317 4289583812
-971.05231 -118.65469 63.364223 4289584060
-968.75256 -117.84204 63.587215 4289451967
-967.33789 -117.74675 63.201752 4289255106
-1000.9223 -115.74983 64.237228 4290968284
-998.58984 -116.16102 63.614483 4290771157
-996.96466 -116.73343 63.535496 4290771930
-993.85364 -116.38209 63.301559 4290638804
-990.97437 -116.59412 63.621956 4290375889
-988.80896 -116.28201 63.814964 4290243791
-986.24951 -116.17538 63.7271 4290111436
-983.76678 -116.25033 64.01712 4290045385
-981.17639 -116.19873 64.462654 4289979083
-979.02802 -115.9491 64.152344 4289978310
-976.17938 -116.08466 64.450203 4289781190
-973.89148 -115.99433 64.273376 4289715397
-971.15991 -116.00331 63.742996 4289715138
-968.71545 -116.22229 63.601749 4289714883
-966.63123 -115.92323 63.449245 4289648576
-1001.4333 -114.83643 63.008057 4290310610
-995.00647 -114.47784 62.652405 4290505935
-994.2121 -114.8273 62.656128 4290506702
-990.20667 -114.85101 62.508698 4290505164
-987.8869 -114.51032 63.075195 4289849039
-985.87769 -114.71484 62.843136 4290110405
-983.6911 -114.35624 63.431343 4289848522
-981.53876 -114.51974 63.380722 4289979079
-978.81372 -114.46188 63.62178 4289781447
-976.29169 -114.33379 63.533619 4289846724
-973.75592 -114.25536 63.286728 4289780673
-971.15143 -114.43836 62.959629 4289583299
-968.71112 -114.02858 63.123028 4289518017
-966.2063 -113.87632 63.303066 4289517762
-964.60077 -113.46706 62.82563 4289451712
-1002.8431 -110.66792 62.634682 4289782730
-1001.1207 -110.96938 62.90929 4289848518
-998.70331 -111.19162 62.807095 4289914313
-996.65509 -111.37263 62.735729 4290045643
-993.68335 -111.00864 63.339752 4289980108
-991.14832 -110.70276 63.912098 4290110660
-988.84277 -110.73984 63.860603 4289782472
-986.40375 -110.56226 63.34478 4289781955
-983.84802 -110.5379 62.835194 4289847748
-981.41125 -110.47058 63.730747 4289913543
-978.98285 -110.48363 63.163765 4289978306
-976.26227 -110.38555 63.824139 4289780938
-973.59155 -110.58328 63.79306 4289714886
-972.14368 -110.15562 64.280212 4289518018
-968.94403 -110.58441 63.476719 4289518021
-966.09088 -111.74912 62.74292 4289648835
-964.38342 -110.78471 62.50647 4289649595
-962.42151 -110.19043 62.941528 4289254853
-1004.2083 -108.81512 62.554047 4289651142
-1001.6815 -109.39826 62.837791 4289978816
-999.20532 -108.28517 62.861603 4289978817
-996.31519 -108.56325 62.574615 4289782215
-993.49481 -109.1942 63.157959 4289913798
-991.36761 -109.10742 63.169342 4289782471
-988.6167 -108.7915 63.372101 4289912774
-985.95526 -108.77606 63.316769 4289716166
-984.43085 -108.5294 63.098312 4289715908
-981.15363 -108.82515 63.909073 4289847235
-978.76788 -108.80016 63.811417 4289781447
-976.27368 -108.78342 64.344742 4289846467
-973.7608 -108.73822 64.465347 4289846469
-971.19623 -108.89868 64.02581 4289714884
-968.7179 -108.94631 63.643353 4289714626
-966.26849 -108.50458 63.991314 4289649091
-963.81512 -108.56735 63.926258 4289517247
-961.86554 -108.46351 62.99987 4289451710
-999.48395 -106.96127 62.926121 4289978562
-995.98535 -105.06364 62.701035 4289584327
-993.2832 -105.51727 63.042427 4290043844
-991.09076 -106.15469 63.551018 4289781955
-988.53973 -106.07339 63.662609 4289781443
-986.26337 -106.04968 63.271191 4289519043
-983.80634 -106.24679 63.680527 4289781443
-981.18274 -106.13862 64.368584 4289846982
-978.89294 -106.31866 64.200066 4289846722
-976.19147 -106.40604 63.258289 4289649605
-973.61121 -106.23484 63.813694 4289583813
-971.37183 -106.05318 63.762325 4289649088
-968.76508 -105.7375 63.088398 4289452481
-966.40393 -106.07779 62.85313 4289648833
-963.84814 -106.36822 63.01366 4289517762
-961.16791 -106.54461 62.619152 4289845696
-959.58167 -105.18927 62.612244 4289976512
-995.84735 -104.06592 62.823112 4289650371
-993.24896 -103.98196 63.435566 4289715653
-991.27515 -103.97366 63.641582 4289715907
-988.72699 -103.75211 64.181747 4289584324
-986.25079 -103.7067 63.457115 4289715393
-983.76794 -103.81831 64.057076 4289715653
-981.21887 -103.86191 63.582874 4289780931
-978.73193 -103.78285 63.893955 4289715397
-976.30084 -103.84299 63.551277 4289649346
-973.82935 -103.82629 63.390541 4289780672
-971.20239 -103.95851 63.540176 4289649347
-968.70508 -103.85438 63.123936 4289714624
-966.15875 -103.79936 62.868668 4289452226
-963.64709 -103.68231 63.233532 4289648836
-961.27454 -103.70431 63.525455 4289517501
-959.20221 -103.43359 63.550865 4289583295
-999.63666 -101.1935 62.712238 4289453253
-987.81305 -102.38538 62.880859 4289584573
-983.29535 -102.45724 63.000141 4289912507
-978.59052 -102.32229 62.90918 4289977538
-975.1571 -102.49702 62.569153 4290043327
-974.00281 -102.46953 62.528137 4289715139
-967.75055 -101.74694 62.901733 4289714623
-965.89117 -101.56178 62.957748 4289583044
-963.60205 -101.3231 63.267769 4289649089
-961.10907 -101.28967 63.448025 4289583296
-958.78204 -101.394 63.330399 4289649087
-957.23059 -101.32115 62.855942 4289516991
-976.25439 -98.196999 62.847198 4289584066
-973.1225 -98.115295 62.756775 4289190083
-971.80389 -98.084412 62.699158 4289517759
-969.63995 -98.85331 62.629456 4289845692
-956.0943 -99.805038 62.510925 4289451708
-990.672 -95.228241 63.592819 4289518003
-987.87866 -95.009621 63.328674 4289519041
-985.89502 -95.305725 63.135845 4289715141
-964.73834 -97.064148 62.613586 4289714373
-990.58099 -93.894905 63.388081 4289386690
-988.33148 -94.252068 62.964775 4289649083
-986.38867 -94.315369 63.026203 4289452739
-983.59741 -94.267014 62.77478 4289649344
-981.75781 -94.258446 63.211262 4289387462
-977.68353 -93.734207 63.249187 4289584070
-977.04663 -93.044334 62.801403 4289845950
-970.54468 -93.240974 62.839539 4289452992
-968.6792 -93.015991 62.640999 4289649600
-966.43945 -93.155777 62.759964 4289584069
-963.68915 -93.044701 62.838612 4289715651
-961.28839 -93.138893 63.175304 4289650373
-958.77362 -92.967056 63.093544 4289848260
-957.15692 -93.092644 63.296925 4290834131
-977.72626 -92.288803 62.781616 4289715906
-976.64252 -92.289566 62.73571 4289846724
-973.1416 -90.986404 62.596783 4289583812
-971.38959 -91.548111 62.579975 4289453254
-969.04364 -92.119476 62.604046 4289650112
-966.30078 -92.435432 62.646317 4289584330
-963.16119 -91.555832 62.778214 4289716163
-961.59717 -91.499725 63.126087 4289782212
-958.75531 -91.481529 63.577225 4292212710
-957.21313 -91.349823 64.22757 4293328634
-994.05536 -87.684143 63.262817 4289518272
-991.53931 -87.526711 63.141876 4289714365
-988.81952 -87.804268 63.169353 4289452741
-981.3111 -87.601341 62.795334 4289518782
-962.28986 -89.726288 62.515137 4292016864
-995.02838 -87.158485 62.766193 4289715397
-994.09314 -86.694908 63.182568 4289584069
-991.104 -86.769753 62.723217 4289583811
-988.80945 -86.782524 62.814758 4289583554
-985.97986 -86.802635 63.210327 4289583556
-983.76117 -86.347656 62.75507 4289649346
-981.23444 -86.678841 62.85873 4289518791
-978.89886 -86.235611 63.292721 4289649858
-976.396 -86.420868 63.017929 4289780934
-973.95392 -86.313217 62.647522 4289781446
-971.51074 -86.104012 62.89613 4289781699
-969.65472 -85.471275 62.526978 4291031250
-991.51062 -82.778503 62.555725 4289387461
-987.54883 -82.665924 62.582764 4289912001
-983.70795 -84.192749 62.817749 4289321417
-979.40955 -84.576149 62.68792 4289584844
-991.53613 -81.789711 62.535889 4289059525
-985.91992 -81.521965 62.891144 4289584321
-982.62531 -81.168396 63.055775 4289584837
-981.36188 -80.947769 63.112305 4289781700
-978.73138 -80.774109 63.193611 4289848265
-976.65631 -80.949829 62.97876 4291424729
-974.49316 -80.537354 64.512001 4293394430
-985.00244 -78.777679 62.737976 4289650371
-982.6604 -79.436523 63.557022 4290044095
-981.24268 -79.415482 63.103775 4289519814
-978.93665 -79.496559 63.306347 4291359963
-977.21899 -79.88092 62.737091 4293525491
-975.11249 -128.93085 65.265503 4289714368
-974.77942 -129.0847 65.248383 4289714876
-986.67822 -127.23465 65.590454 4291477901
-984.29712 -125.64673 65.849983 4289914574
-991.21643 -122.73606 66.396454 4291362790
-988.69092 -123.35297 66.172546 4291165916
-987.09308 -123.60338 65.844727 4290968281
-984.76434 -124.65797 65.712036 4290243276
-1003.946 -120.24113 66.725037 4293853183
-992.74799 -120.77488 66.382202 4291428327
-991.70618 -121.38227 66.040817 4291231457
-989.45154 -122.33009 65.094177 4291296984
-1003.4095 -118.98907 66.52581 4294049791
-1002.3335 -117.96479 67.255249 4293525503
-995.96143 -118.42789 66.248489 4291165922
-993.85229 -119.44655 66.158646 4291100385
-991.23761 -119.81422 65.384995 4290968796
-978.69897 -117.50005 65.158386 4289978308
-973.0899 -117.75521 65.801086 4289583297
-971.9397 -117.72599 65.761078 4289649349
-1000.5281 -116.54993 66.651573 4291231199
-998.84448 -116.8586 66.179771 4291100121
-997.28925 -117.34969 65.207779 4290838242
-978.23077 -116.49996 65.141617 4290109379
-976.54694 -116.69939 65.081779 4289846984
-973.11621 -116.79111 65.604675 4289845701
-972.00098 -116.78354 65.683372 4289452999
-977.57202 -110.05795 65.138184 4289977544
-976.25647 -110.02566 65.093399 4289715402
-980.54724 -109.63882 65.081726 4289717448
-973.9787 -108.94432 65.211411 4289780678
-966.2038 -109.09686 65.217903 4289517503
-963.72491 -108.99973 65.50882 4289451968
-981.29315 -105.99847 65.406799 4289912264
-978.00623 -105.7217 65.568642 4289977288
-988.09338 -104.23805 65.205231 4289714891
-981.32678 -104.77863 65.251892 4289584580
-978.04456 -104.29406 65.432022 4289584580
-975.19617 -80.538773 65.618195 4293132272
-973.80487 -80.676964 66.557373 4293591038
-987.61584 -125.36996 69.471069 4293066751
-991.11963 -122.93819 67.660805 4291821551
-988.53876 -123.72733 68.880447 4291362532
-987.34595 -124.18835 68.337685 4290969305
-993.3725 -120.73384 68.908066 4291952620
-992.08557 -121.98323 68.215385 4291493865
-1003.735 -118.79202 68.594078 4293459705
-1002.3079 -118.17856 67.735413 4293853183
-998.15948 -117.82077 68.948051 4291690472
-996.237 -118.90105 68.643715 4291559394
-994.71027 -119.13729 68.012901 4291165926
-1003.6927 -117.26437 69.179237 4294180603
-1000.7426 -117.13656 68.448502 4292345843
-998.96442 -117.12336 68.881561 4291624670
-987.91205 -125.14746 70.927368 4293591039
-988.69952 -124.16457 70.98098 4292935418
-993.6441 -121.11839 71.500038 4293263357
-1003.5141 -117.53629 70.606201 4294180862
-1000.818 -117.63849 72.343079 4293787647
-998.09558 -117.95189 71.067413 4292411383
-996.93713 -118.80618 71.209549 4292935671
-1003.4131 -117.07967 70.668785 4293983997
-1000.7366 -117.23203 71.009468 4293525499
-998.8703 -117.18764 70.530678 4291624934
-990.78485 -123.49312 74.912292 4293984255
-989.27307 -124.19446 73.532219 4293722111
-993.29364 -121.48317 73.930817 4293525503
-1004.7147 -117.979 72.811951 4291228381
-1001.2745 -117.76096 73.665031 4293722111
-998.3457 -118.06391 74.003944 4293591038
-997.45093 -118.39005 74.43692 4293722110
-999.49158 -117.35526 72.979218 4293459963
-1017.2019 -145.63092 76.901367 4289649594
-1015.9374 -143.5269 77.105629 4289845949
-1013.0178 -138.85197 76.988548 4289518526
-1012.1666 -137.67345 77.19519 4289780925
-1011.2292 -135.99734 77.223389 4289256130
-1008.8466 -131.9558 76.950562 4289715139
-1007.1906 -129.12321 76.731873 4289453512
-1005.2975 -126.20556 76.979492 4289584839
-1004.9738 -125.62555 77.251709 4289912508
-1004.0459 -124.0109 77.073547 4289519555
-991.18317 -123.47337 76.716728 4293525503
-989.45026 -124.43426 76.009056 4293722111
-1002.7457 -121.76917 76.444489 4289585356
-1002.1693 -121.00887 77.043579 4289650886
-995.99579 -120.21098 77.397667 4293722111
-993.59393 -121.3723 76.377151 4293722111
-1000.8064 -117.76758 76.547455 4293591039
-998.69348 -118.37682 76.311363 4293722111
-996.86475 -119.3689 76.437943 4293525503
-999.73987 -116.85287 75.285339 4292345855
-1020.3713 -151.06731 78.763153 4289517501
-1019.8468 -150.29347 79.617798 4289518277
-1018.6587 -148.08455 78.697609 4289518019
-1017.9951 -147.24487 79.233398 4289518273
-1017.062 -145.7701 79.131165 4289517756
-1015.7935 -143.6321 78.979942 4289649341
-1014.2866 -141.12115 79.206528 4289714880
-1012.6941 -138.63942 78.98877 4289386954
-1012.2734 -138.04045 78.633316 4289518783
-1011.0244 -135.89214 79.064476 4289583551
-1010.3503 -134.69809 78.442062 4289714626
-1009.8875 -133.99121 78.918976 4289584585
-1008.2933 -131.34357 78.900703 4289715138
-1006.6658 -128.58728 78.6744 4289584580
-1005.5081 -126.75273 79.140732 4289649864
-1004.7581 -125.62897 78.404602 4289650365
-991.96655 -125.46208 79.921692 4290044881
-1003.8268 -123.93185 78.778671 4289716165
-991.46637 -123.86958 78.725891 4293525244
-989.6535 -124.51785 79.480896 4293525503
-1002.7156 -122.19076 78.772011 4289715905
-1002.1823 -121.25105 78.775528 4289651148
-995.89233 -120.97587 78.75663 4293787646
-994.23956 -121.41312 78.642082 4293722111
-1000.9837 -118.36607 78.8964 4292803057
-998.98529 -118.65611 78.588882 4293591039
-996.99347 -119.52891 79.478317 4293722111
-994.68689 -119.86424 77.909058 4293787647
-1012.9911 -160.21719 81.554657 4289517512
-1011.2881 -160.46028 82.194801 4289450946
-1007.7749 -160.53746 81.965782 4289449397
-1007.4613 -160.21605 81.918518 4288793274
-1015.8442 -158.50117 81.99704 4289648057
-1013.0561 -158.91451 82.239044 4289254591
-1010.9907 -158.87938 82.22094 4289516989
-1009.1749 -158.78969 82.080772 4289385408
-1007.4774 -158.79564 82.295631 4289385658
-1020.2064 -155.04323 82.280273 4289451705
-1019.4673 -155.88547 82.11261 4289516983
-1016.0947 -155.66504 82.224762 4289582780
-1013.5713 -156.01541 82.148087 4289713598
-1011.1948 -156.1739 82.162796 4289517245
-1009.0802 -156.41782 82.100021 4289450940
-1006.7487 -156.54587 82.368523 4289385404
-1020.4138 -153.79709 82.407066 4289517504
-1018.5414 -153.64687 82.360199 4289385918
-1016.194 -154.12781 82.199066 4289516732
-1013.6904 -154.34612 82.179985 4289516478
-1011.7979 -154.56003 82.202278 4289713595
-1009.8478 -154.73491 82.242249 4289909453
-1020.2708 -151.66255 81.319923 4289517754
-1018.8008 -151.29372 82.239311 4289386429
-1016.5425 -150.1757 82.320518 4289648317
-1013.3771 -150.25128 82.102829 4289583040
-1011.1368 -150.70067 81.815544 4289714108
-1009.0345 -150.68547 82.134476 4289517248
-1006.2704 -150.5042 82.098045 4289385917
-1003.5685 -150.85535 82.008942 4289254075
-1001.9603 -150.63855 81.551018 4289122234
-1018.3478 -148.92957 81.894798 4289517757
-1016.3433 -148.70961 82.129288 4289583040
-1013.8354 -149.04558 81.9729 4289648315
-1011.2197 -148.71228 82.090637 4289451454
-1008.7717 -148.78314 82.000755 4289451712
-1006.3243 -148.72018 81.835762 4289451196
-1003.9351 -148.97858 82.007004 4289516735
-1001.8688 -148.97688 81.826607 4289516988
-1017.6864 -147.00478 81.15641 4289583807
-1016.1835 -146.37798 81.987473 4289649085
-1013.7599 -145.82622 82.017822 4289648575
-1011.2657 -146.41576 82.058281 4289517248
-1008.8585 -146.4426 82.196205 4289516988
-1006.54 -146.80408 82.235176 4289319869
-1001.0314 -145.39252 81.869972 4289385658
-999.34094 -145.88724 82.204445 4289385143
-1015.5902 -144.08189 81.279381 4289714624
-1013.8771 -144.29066 82.03093 4289452225
-1012.2097 -144.46373 82.192688 4289516990
-1008.3588 -143.46996 82.440636 4289320128
-1006.1806 -143.21553 82.35807 4289451454
-1003.7523 -143.46243 81.898857 4289451454
-1001.5445 -143.78403 81.925583 4289648062
-998.42554 -143.37665 82.253357 4289582271
-1013.882 -141.15327 81.569923 4289649090
-1010.994 -140.81194 82.387009 4289714368
-1008.7151 -141.27185 82.35878 4289451712
-1006.2152 -141.33807 82.284042 4289582527
-1003.8647 -141.39459 82.069321 4289451196
-1000.8719 -141.49309 82.115433 4289451199
-998.4314 -141.88649 82.223038 4289516735
-996.82404 -141.16705 81.809639 4289450939
-1012.6531 -139.24402 81.634605 4289583557
-1011.2018 -138.76416 81.980881 4289583554
-1008.8448 -138.76695 81.575783 4289517758
-1006.2585 -138.94157 81.310089 4289583037
-1003.7729 -138.53326 81.94873 4289451712
-1001.5917 -138.49792 82.368866 4289582779
-998.26483 -138.02042 82.294388 4289516730
-996.94257 -138.39537 82.366806 4289450684
-994.42743 -137.75746 81.856911 4289450690
-1010.6996 -136.49513 81.15889 4289583553
-1008.8389 -136.42163 81.790703 4289648828
-1006.1886 -136.76982 82.124619 4289583042
-1003.514 -136.19576 82.308258 4289583037
-1001.5468 -136.46375 82.381531 4289451713
-998.37848 -136.35411 82.120796 4289451454
-996.38055 -136.21657 81.96524 4289386173
-993.91034 -136.12996 81.776367 4289582268
-992.24078 -135.0479 81.562988 4289450420
-1010.0687 -134.77852 81.27932 4289518008
