# .PCD v0.7 - Point Cloud Data file format
VERSION 0.7
FIELDS x y z rgba
SIZE 4 4 4 4
TYPE F F F U
COUNT 1 1 1 1
WIDTH 1055
HEIGHT 1
VIEWPOINT 0 0 0 1 0 0 0
POINTS 1055
DATA ascii
-1049.2748 -181.00601 29.284719 4283454529
-1049.0665 -178.51743 28.460823 4283652433
-996.71899 -161.17224 27.786478 4284899932
-1045.4771 -157.79152 29.689301 4287671964
-1044.0083 -157.77419 29.522511 4288134314
-1003.3082 -157.6545 28.890198 4286085991
-1001.2515 -158.34413 28.252224 4285430133
-998.63678 -159.55214 28.921719 4284702557
-997.23627 -159.72667 28.785532 4284834654
-1045.4338 -157.41318 28.831779 4287014291
-1043.7847 -157.11638 28.786963 4288003242
-1041.2119 -154.58073 28.004486 4287604117
-1039.9779 -154.63094 28.286682 4287279280
-1036.6396 -154.71394 27.886459 4286550148
-1048.9316 -205.87189 31.481283 4283652682
-1049.6903 -185.76701 30.975851 4283849036
-1049.1028 -181.74803 30.910583 4283785543
-1048.7756 -178.72768 31.486084 4283392088
-1048.6086 -176.34425 30.204834 4283918174
-1048.3461 -173.25163 30.113525 4283784271
-996.86438 -163.1889 31.949158 4284704354
-997.01514 -160.60606 31.145864 4284834652
-1045.4438 -158.4873 31.783409 4287738268
-1043.8184 -158.23244 31.344772 4288068524
-1000.2111 -159.13507 31.422729 4285233264
-998.60345 -159.69283 31.027174 4284570974
-997.32904 -159.73544 30.978729 4284900197
-1043.3929 -157.2773 30.643616 4288330412
-1042.4111 -156.4594 31.591589 4288330412
-1050.1035 -205.32106 32.573975 4282999639
-1049.4171 -205.30386 32.550323 4283917405
-1050.4995 -204.07761 34.116943 4284710503
-1049.2766 -204.14792 34.556545 4284447336
-1046.9371 -204.35597 34.450607 4283856743
-1047.6689 -197.79594 34.733093 4284645487
-1047.3268 -197.78773 34.721252 4284711279
-1048.0955 -197.19035 34.735107 4284252007
-1048.7374 -192.82785 34.475792 4284448612
-1048.5093 -191.72731 34.647652 4284448877
-1046.993 -191.6264 34.97134 4284645229
-1048.1733 -185.8875 34.899788 4284645482
-1046.3505 -185.62743 34.884125 4284644969
-1048.173 -183.76434 34.876747 4284579948
-1046.2173 -183.65271 34.870174 4284645228
-1047.9944 -181.3924 34.840115 4284383082
-1046.422 -181.44933 34.834515 4284383341
-1045.3811 -178.09923 34.868095 4284317546
-1047.696 -176.36197 34.422108 4284644716
-1046.2025 -176.32185 34.626568 4284448621
-1044.7672 -175.94524 34.6367 4284645479
-1047.5551 -174.25682 34.631943 4285103721
-1046.2015 -173.74193 34.629887 4284711273
-1044.7382 -173.65425 34.618233 4284579691
-1046.2878 -172.30803 34.731789 4284711274
-1044.3329 -170.32442 34.604107 4284711275
-1045.8446 -168.78221 34.375229 4284448875
-1044.4244 -168.92892 34.324284 4284645996
-997.6405 -168.86072 34.955109 4284182886
-997.39252 -168.36171 32.722595 4284243282
-1045.739 -166.40807 34.647472 4284645739
-1043.975 -166.4433 34.532593 4284514924
-1045.5883 -163.68796 34.506077 4284580460
-1044.0569 -163.75122 34.444256 4284580205
-1045.677 -161.22697 34.36187 4284711529
-1043.9291 -161.24179 34.524273 4284778092
-1000.4594 -160.50497 34.429871 4285300336
-998.85632 -160.30664 34.591873 4284374359
-997.24512 -160.41028 32.837128 4284899423
-1045.6187 -159.44545 33.691608 4285698421
-1043.8483 -159.15503 33.59409 4286752147
-1000.3214 -159.49942 33.608673 4286020711
-999.02637 -159.7482 34.194099 4284374620
-1042.1324 -156.87669 34.687439 4288199597
-1050.2396 -202.91132 35.308105 4284908913
-1048.631 -203.19977 35.408039 4284710765
-1047.1583 -203.21129 35.696743 4284514158
-1050.2737 -201.18355 35.38105 4284644971
-1048.8477 -201.2556 35.838284 4284448623
-1047.233 -201.23988 35.983498 4284579692
-1050.0905 -198.44344 35.584534 4284710000
-1048.7612 -198.79263 35.636471 4284579435
-1047.0867 -198.79732 35.55941 4284710506
-1050.0211 -197.39622 35.377502 4284382069
-1048.7462 -196.18784 35.384869 4284579946
-1046.8634 -196.4279 35.831085 4284448616
-1048.6095 -193.87183 35.831917 4284579434
-1046.8337 -193.59895 35.717354 4284514154
-1048.637 -190.62155 35.132488 4284842605
-1046.4943 -190.97037 35.583687 4284579945
-1048.3945 -188.8132 35.846882 4284645226
-1046.5948 -188.7132 35.7798 4284645226
-1048.0757 -186.83131 35.250309 4284514157
-1046.7368 -186.63655 35.104115 4284710504
-1047.6294 -183.98296 35.01886 4284514156
-1046.3525 -183.73296 35.438622 4284579690
-1046.0024 -180.8409 35.397053 4284645740
-1044.8621 -181.12273 36.008381 4284645225
-1047.859 -178.7437 35.433483 4284644965
-1046.413 -178.77454 35.444283 4284645485
-1044.7899 -178.98738 35.952049 4284579686
-1044.1919 -176.8154 36.987335 4284645230
-1046.1434 -171.13245 35.274033 4284645483
-1044.4957 -171.29666 35.279705 4284710505
-997.55664 -170.15448 36.352997 4287212187
-1045.8872 -169.97694 35.219017 4284645230
-1044.877 -169.9817 35.007935 4284514666
-1000.3085 -168.12576 36.325722 4284377950
-998.77856 -168.56558 35.964108 4285168493
-1045.8632 -165.81927 35.129459 4284645992
-1044.3784 -166.01547 35.125019 4284449133
-1000.186 -166.63504 35.401272 4283848268
-998.87177 -166.30902 35.72646 4283981136
-1045.8455 -164.83803 35.146896 4284645993
-1043.6486 -163.9628 35.794029 4284712042
-1000.1088 -163.737 36.306122 4283783757
-998.79395 -163.69395 36.20771 4284111950
-1042.4479 -162.27821 37.43811 4284712817
-1000.3381 -161.58437 35.793861 4284115806
-998.7309 -161.28381 35.583237 4284243025
-997.46869 -161.60947 35.277771 4284440924
-1042.3082 -158.33289 36.204498 4287015322
-1005.0674 -158.17336 35.426392 4288331949
-1000.8662 -159.81343 36.888275 4287015322
-1041.2574 -156.43102 36.349712 4288134059
-1039.5382 -155.83669 36.604156 4288265131
-1026.5186 -157.2856 37.206848 4288265134
-1046.2462 -197.87938 38.930382 4284710506
-1045.928 -195.45001 39.303234 4284709992
-1045.8016 -193.63678 38.830544 4284710764
-1045.4653 -190.84409 39.034027 4284514152
-1045.2883 -188.64738 38.742218 4284448619
-1045.2286 -187.28404 37.882751 4284579433
-1044.7549 -185.19289 39.879181 4284579180
-1044.8104 -184.02602 38.951221 4284644964
-1044.5875 -182.12285 38.772198 4284579690
-1044.2 -178.65869 38.577297 4284448874
-1043.7278 -174.83147 38.879425 4284645489
-1043.4857 -172.14607 38.486115 4284775787
-1000.4043 -170.12892 39.134724 4286620561
-998.70996 -170.16927 39.209393 4287015067
-997.46497 -170.24306 38.779175 4287146399
-1043.0054 -168.48087 39.116405 4284580456
-1000.4131 -169.31187 38.393116 4286619534
-998.94257 -169.58807 38.553165 4286817942
-1042.973 -167.21979 37.893555 4284186989
-1042.6611 -163.53764 38.557983 4284711784
-1042.2335 -162.54823 39.811768 4284449642
-1042.4265 -162.4313 37.639801 4284580974
-1000.7736 -160.21643 38.93634 4286620047
-1042.0817 -159.09023 38.595032 4284908905
-1024.6505 -157.66048 39.439575 4288134830
-1014.4232 -157.59395 39.605164 4288134575
-1006.2427 -158.58034 39.339497 4288134570
-1002.7992 -159.5291 39.731323 4288396469
-1001.7428 -159.77277 38.809082 4287936680
-1040.7529 -156.28375 38.943268 4288199336
-1039.2266 -155.92947 38.932159 4288330668
-1036.0388 -156.31763 39.550678 4288200104
-1033.733 -156.42024 39.446125 4288265641
-1031.4934 -156.75632 39.04847 4288068781
-1028.6263 -156.98338 38.885193 4288134574
-1027.4467 -157.34059 38.564209 4288135085
-1024.0538 -157.26424 39.161724 4288134830
-1014.437 -157.28426 39.496155 4288330925
-1007.658 -156.40437 39.343811 4288332213
-1006.2908 -157.11676 39.085083 4288135083
-1012.8246 -204.88274 41.234802 4284512876
-1012.4692 -204.78194 41.557068 4284120171
-1040.77 -201.933 41.813354 4284515180
-1039.7036 -201.72502 42.387939 4285365868
-1045.9703 -197.97365 41.872864 4284840814
-1045.7335 -196.35017 41.170959 4284645228
-1045.4321 -193.64516 41.44458 4284972655
-1045.2136 -191.27118 40.731068 4284514411
-1044.9094 -188.32852 41.10099 4284513900
-1044.6082 -186.17461 41.230568 4284513894
-1044.3317 -183.15866 41.320118 4284644709
-1043.9937 -180.73753 41.933247 4284513897
-1043.8628 -178.53783 41.454609 4284711016
-1043.3347 -173.65709 41.303444 4284645232
-1043.3318 -172.25806 40.182892 4284710763
-1000.481 -170.31158 42.035446 4286554257
-998.55847 -170.53018 41.155735 4286752663
-997.38348 -170.21562 41.010639 4287081629
-1042.8568 -168.88489 41.328979 4284842091
-1000.4286 -169.88806 41.496105 4286554512
-999.41187 -169.90053 41.444294 4286817687
-1042.51 -163.89116 40.180664 4284318820
-1042.2705 -163.81546 41.263935 4284384107
-1000.5815 -162.7719 42.114624 4284639838
-1000.822 -160.7569 41.604324 4286420360
-1041.8459 -159.64755 41.14653 4284909165
-1025.4353 -157.59259 41.274597 4288462505
-1024.8643 -157.61075 41.332153 4288200107
-1014.501 -158.20044 40.985699 4288135087
-1012.2244 -157.65984 42.497864 4288069034
-1006.4639 -158.56113 40.907505 4288134828
-1003.401 -159.51228 41.546555 4288396718
-1001.8953 -159.74919 41.47031 4288264876
-1040.8534 -156.22267 41.37138 4288068522
-1038.4895 -156.13284 41.281399 4288199854
-1036.0488 -156.28485 41.413414 4288200362
-1034.4528 -156.3304 41.46376 4288396970
-1030.9878 -156.88443 41.270752 4288003758
-1029.3059 -156.93327 40.856998 4288134569
-1025.27 -157.37529 40.452759 4288462507
-1024.9351 -157.19699 40.437622 4288134570
-1011.5325 -156.55052 41.837055 4288265646
-1007.5504 -156.61464 41.474304 4288265905
-1006.9946 -156.91389 40.503632 4288331696
-1019.5703 -203.59508 42.68103 4284908395
-1016.149 -204.09035 42.877014 4284711286
-1038.1941 -201.11542 44.314819 4284776807
-1045.8175 -198.19476 43.459675 4284710765
-1045.5031 -196.57193 43.602448 4284316778
-1045.2102 -193.98405 43.762756 4284841071
-1044.9612 -191.83615 43.334015 4284645225
-1044.651 -189.12614 43.717407 4284448871
-1044.303 -186.83492 44.4104 4284579442
-1044.0957 -184.01039 43.697582 4284448616
-1043.8491 -181.68727 43.282181 4284644969
-1043.5464 -178.76189 43.647964 4284448875
-1043.2837 -175.68138 43.614868 4284383595
-1043.0131 -173.72021 43.910435 4284449135
-1042.6727 -170.68999 44.192627 4284841579
-1000.5721 -170.65199 44.054913 4286685334
-999.18866 -171.04172 43.94508 4286949528
-997.29358 -170.31 43.385437 4287408546
-1042.7288 -169.15889 43.016556 4284645997
-1042.4198 -168.03926 43.93396 4285235304
-1001.0296 -168.83867 44.029877 4285896840
-1042.2041 -165.13063 43.320496 4284055663
-1001.0694 -166.33835 44.581261 4285500025
-1041.9446 -163.05611 42.973633 4284580965
-1000.8442 -163.99437 43.241821 4283789931
-1000.9607 -160.59874 43.38372 4286487172
-1041.6704 -159.97472 43.07019 4284908145
-1024.7144 -157.61812 43.541016 4288134314
-1018.5262 -158.0181 44.19894 4288330666
-1016.158 -158.24388 43.699081 4288134316
-1013.6631 -158.41008 43.672112 4288068266
-1011.1582 -158.27921 44.102028 4288200108
-1008.7324 -158.24203 44.592579 4288200365
-1005.728 -158.85924 43.77911 4288200363
-1003.787 -159.28426 44.146942 4288265387
-1002.0598 -159.8515 44.183361 4287675049
-1040.4169 -156.18703 43.56123 4287804315
-1038.9813 -156.19937 43.803631 4287935906
-1036.0574 -156.40053 43.695572 4288002216
-1034.5936 -156.67175 43.345264 4288330410
-1031.1812 -156.98419 43.478516 4287740328
-1029.1594 -157.2029 43.205139 4288068778
-1025.3585 -157.47992 44.089813 4288133538
-1011.0422 -156.68297 43.422314 4288265647
-1008.7387 -157.02921 44.24017 4288200106
-1007.2492 -157.25662 44.59486 4288134824
-1018.8635 -202.6478 46.202942 4284710770
-1038.4305 -200.09877 46.817245 4284907370
-1030.7659 -200.59616 46.800045 4284645485
-1029.7106 -200.66641 46.664627 4284514666
-1017.9682 -202.14815 47.203247 4284513646
-1014.3544 -202.34212 47.27594 4284580198
-1043.6932 -198.5388 47.404949 4284841580
-1040.6959 -198.67044 47.062046 4284382570
-1038.5155 -198.74196 47.343552 4284513642
-1036.1393 -198.7097 47.353813 4284644714
-1033.5828 -198.22169 47.218914 4284448106
-1031.152 -198.90829 47.225613 4284513899
-1029.7952 -199.03279 47.196609 4284448872
-1024.804 -198.41554 47.448212 4284514155
-1019.4093 -197.79881 47.483765 4284579684
-1017.3718 -198.42862 47.399586 4284513645
-1008.2556 -198.11311 47.493835 4283527774
-1004.9043 -198.99799 46.500385 4283194957
-1043.5276 -197.05971 47.444199 4284514152
-1041.8362 -197.0779 47.352715 4284579433
-1038.1787 -196.63394 47.426895 4284645486
-1036.3806 -196.56241 47.339508 4284513643
-1033.6641 -197.06853 47.241962 4284579432
-1032.2834 -197.41832 47.242065 4284907364
-1019.4223 -197.29347 47.473785 4284776551
-1017.3963 -197.41191 47.407166 4284645227
-1044.2306 -192.6938 47.379517 4284644716
-1040.7709 -192.94017 47.393044 4284448364
-1038.9275 -193.49014 47.325657 4284448363
-1037.1686 -193.65224 47.372528 4284579436
-1025.4667 -192.71523 47.214264 4284580201
-1023.3293 -193.20026 47.398453 4284317803
-1006.0081 -193.46941 47.492676 4283528798
-1043.2881 -191.10806 47.220539 4284448359
-1041.3696 -191.40152 47.353218 4284644972
-1039.0668 -191.48154 47.286522 4284579692
-1036.9497 -191.41606 47.29451 4284644971
-1034.5504 -190.87285 47.199627 4284054632
-1028.8724 -190.28535 47.432991 4284382572
-1025.9763 -191.37096 47.322617 4284513896
-1023.2634 -192.16182 47.498596 4284907629
-1010.1351 -190.57437 47.401947 4284448365
-1008.7445 -192.22548 47.388641 4284185962
-1043.3722 -189.0345 47.199814 4284514152
-1041.7164 -189.27312 47.395233 4284514413
-1038.9572 -188.12453 47.335541 4284513897
-1036.3923 -188.88103 47.161598 4284579693
-1033.8944 -188.71227 47.186714 4284514159
-1031.2947 -188.34464 47.126686 4284579436
-1029.0223 -189.12556 47.18565 4284514154
-1021.3403 -188.2915 47.353069 4284711027
-1019.5255 -189.08711 47.245197 4284645485
-1012.7089 -188.78406 47.452679 4284580460
-1011.0076 -189.41548 47.407715 4284711532
-1009.1734 -188.32265 47.493958 4284515693
-1043.4182 -186.1983 46.862148 4284579430
-1041.288 -185.93367 47.349487 4284711018
-1039.5256 -186.87877 47.305927 4284579943
-1036.3032 -185.1609 47.223228 4284448622
-1034.9342 -185.09453 47.439636 4285103209
-1031.5328 -187.27409 47.006897 4284842099
-1026.6603 -185.26433 47.247753 4284710764
-1023.921 -186.27576 47.399445 4284645221
-1016.1133 -185.47836 47.412319 4284842860
-1043.202 -183.83272 46.965244 4284579686
-1041.3927 -183.53709 47.134315 4284645227
-1038.7823 -183.57669 46.730946 4284645484
-1036.2646 -183.77521 46.880939 4284645484
-1034.3016 -184.03069 47.049156 4284842087
-1030.5979 -182.76347 47.399048 4284644462
-1028.689 -183.43167 47.050289 4284580204
-1026.2258 -183.8557 47.106823 4284514155
-1024.0039 -183.62071 47.135456 4284645479
-1021.0424 -183.4743 47.004406 4284776557
-1018.7629 -183.69608 47.15052 4284711275
-1016.5991 -184.00705 47.314281 4284711787
-1012.6884 -182.68193 47.497314 4284842090
-1011.2005 -183.40535 47.323612 4284842860
-1009.1983 -183.8349 47.360783 4284778092
-1006.3941 -182.86163 47.286507 4284646767
-1004.3483 -183.45824 47.229118 4284251753
-1043.0513 -181.34322 47.003799 4284317032
-1041.3224 -181.62036 46.957626 4284514151
-1038.6953 -182.04395 46.944565 4284645229
-1036.8334 -182.15475 47.007824 4284710763
-1033.4883 -181.88374 47.463085 4284645485
-1031.5522 -181.39351 47.390511 4284579947
-1028.8519 -181.91669 47.28727 4284711020
-1026.5568 -182.20747 47.374252 4284448359
-1023.6053 -181.74126 47.282558 4284514410
-1021.1614 -182.15976 47.220249 4284645477
-1017.084 -182.48764 47.471436 4284646252
-1012.697 -182.34486 47.490662 4284711786
-1011.0135 -182.30225 47.432304 4284777066
-1008.0262 -180.54448 47.29406 4285040500
-1006.7178 -181.29646 47.315556 4285106031
-1042.9624 -178.45563 46.881462 4284382572
-1042.0596 -177.90721 47.241608 4284579182
-1038.1831 -177.63408 47.145397 4284776294
-1036.079 -178.11288 47.137001 4284776299
-1033.942 -178.07259 47.262177 4284776559
-1031.2688 -178.08839 47.157448 4284645229
-1028.6832 -178.23203 46.892807 4284710767
-1026.6278 -178.24098 47.143066 4284514413
-1020.7556 -177.66194 47.36253 4284645743
-1018.7063 -177.97928 47.214634 4284777325
-1016.1686 -178.09879 47.361679 4284777577
-1014.1613 -177.92604 47.406082 4284712042
-1010.8736 -178.10376 47.252899 4284778095
-1008.6063 -178.57091 47.304333 4284778094
-1005.8877 -178.45782 47.224476 4284909937
-1042.8169 -176.46812 46.18676 4284710758
-1041.2494 -176.21825 47.019318 4284579691
-1038.7699 -176.37845 46.966572 4284579946
-1036.2092 -176.26698 46.865082 4284579948
-1033.8386 -176.32625 46.875134 4284645481
-1031.2545 -176.37352 46.816914 4284579950
-1028.8489 -176.46797 46.949909 4284580205
-1026.4471 -176.37035 47.156982 4284514671
-1023.3927 -176.04294 47.169701 4284580460
-1021.3531 -176.28928 47.148537 4284711276
-1018.8425 -176.7034 47.243031 4284711790
-1016.0809 -176.20529 47.365742 4284645999
-1013.7565 -176.23103 47.270676 4284777838
-1011.3001 -176.43518 47.191185 4284909168
-1008.9752 -176.9776 47.265282 4284778355
-1042.8073 -174.52895 45.458942 4284449135
-1041.6544 -173.91357 47.170681 4284711019
-1038.6057 -173.67015 47.025558 4284645227
-1036.3254 -173.69621 46.948017 4284776811
-1033.7408 -173.6786 47.241982 4284710764
-1031.7155 -174.52682 47.399998 4284776556
-1028.282 -173.04826 47.167835 4284711280
-1025.6111 -173.68704 47.196606 4284514927
-1023.5529 -173.67436 47.327038 4284580202
-1021.7956 -173.64246 47.398373 4284777325
-1018.1231 -173.38139 46.937534 4284579952
-1016.303 -173.71463 47.200211 4284842607
-1014.0027 -174.11943 47.310772 4284843119
-1011.4334 -174.72786 47.289936 4284908653
-1008.3417 -173.08066 47.220016 4284777839
-1041.0471 -171.20375 46.885895 4284711019
-1038.778 -171.34329 46.884983 4284776812
-1036.2113 -171.37091 47.226467 4284448619
-1033.757 -171.2269 47.222473 4284711274
-1031.0751 -170.76979 47.262543 4284776556
-1028.8477 -171.24284 47.223434 4284579949
-1025.9615 -171.08406 47.204308 4284645995
-1023.7108 -171.16464 47.367397 4284580205
-1021.2372 -171.20399 47.229221 4284711532
-1018.8799 -171.24255 47.24736 4284580460
-1016.2659 -172.10466 47.357334 4285105006
-1014.9873 -171.83191 47.397541 4285104751
-1011.3931 -170.8076 47.227924 4284842862
-1009.047 -171.62315 47.142071 4284908655
-1005.5945 -170.19032 47.066467 4284778604
-1002.8743 -170.37401 47.440552 4285370229
-1000.8124 -171.11948 46.63319 4286817172
-999.04822 -171.58891 46.019272 4287345058
-1041.0081 -168.82237 47.061676 4284579948
-1038.6434 -168.31299 47.176594 4284645229
-1036.2445 -168.60463 47.044533 4284776812
-1033.7616 -168.85944 47.070972 4284645228
-1031.2462 -168.68141 47.030636 4284645481
-1028.7626 -168.44128 46.88488 4284645996
-1026.1995 -168.69829 46.715805 4284580462
-1023.7921 -168.66316 47.116402 4284645741
-1021.2053 -168.67184 47.339622 4284711531
-1018.8264 -168.58368 47.285095 4284842605
-1016.3668 -168.34947 47.214573 4284842607
-1013.6639 -168.31831 47.197315 4284777582
-1011.3257 -168.36285 47.034363 4284712302
-1008.6584 -168.18927 46.898262 4284974703
-1006.3172 -168.68643 46.848038 4284909677
-1003.9279 -168.86548 47.153889 4285041524
-1001.6133 -168.77794 46.911892 4285698942
-1040.9246 -166.29945 46.77462 4284580203
-1038.824 -166.3504 46.352638 4284645740
-1036.1776 -166.23875 46.679615 4284645997
-1033.7831 -166.18362 46.868309 4284777067
-1031.2999 -166.27554 46.579731 4284645995
-1028.7107 -166.29103 46.424332 4284449644
-1026.318 -166.25217 46.69239 4284711787
-1023.7124 -166.21921 47.107941 4284777324
-1021.1893 -166.22675 47.120785 4284711791
-1018.751 -166.248 47.141277 4284777327
-1016.1522 -166.27715 47.137711 4284843119
-1013.7964 -166.22292 47.022797 4284712049
-1011.412 -166.47134 46.608097 4284843632
-1008.7568 -166.82355 46.690796 4284909421
-1006.4209 -167.00931 47.123978 4284975216
-1004.8121 -167.05492 47.438061 4284910191
-1002.0415 -165.88274 47.457703 4285239157
-1040.7158 -163.69841 47.172512 4284711277
-1038.7058 -163.75206 46.958641 4284645737
-1036.2213 -163.79514 46.912815 4284711278
-1033.8796 -163.86224 46.937794 4284580716
-1031.4025 -164.12663 46.902534 4284580460
-1028.7875 -164.50764 47.297592 4284777323
-1026.4362 -164.5621 47.404144 4284645996
-1023.5021 -163.80264 47.359852 4284777325
-1021.2728 -163.74585 47.251755 4284580975
-1018.7161 -164.04784 47.260365 4284777838
-1016.3354 -163.9205 47.146122 4284908910
-1013.7965 -164.27679 47.170013 4284908913
-1011.7844 -164.88077 47.387402 4285105524
-1005.4876 -162.70531 47.153374 4284778867
-1003.7416 -162.62364 47.448486 4284910449
-1002.335 -164.94658 47.448425 4284648826
-1040.7349 -161.52382 46.654175 4284711789
-1038.7789 -161.26469 46.767693 4284646255
-1036.1962 -161.1817 47.00869 4284646511
-1033.9465 -160.89764 46.863091 4284712302
-1031.0873 -160.85149 46.604141 4284712050
-1028.6472 -161.12875 46.514404 4284646509
-1026.1615 -161.26045 46.871071 4284712301
-1023.7718 -161.14323 46.990372 4284778093
-1021.235 -161.23703 46.657574 4284778093
-1018.7807 -161.21982 46.390186 4284712303
-1016.3221 -161.15353 46.776134 4284974962
-1014.0478 -161.24014 47.060696 4284844142
-1010.7238 -160.42085 47.194408 4284910193
-1008.727 -160.84206 46.853962 4284975474
-1006.2313 -161.27444 46.823635 4285106803
-1003.7439 -161.18796 46.778969 4285173366
-1001.8755 -161.04062 46.543304 4285567351
-1040.3827 -158.84218 46.504852 4284712046
-1038.6943 -158.7951 46.473465 4284777581
-1036.2363 -158.71581 46.332401 4284843633
-1033.6985 -158.76772 46.447491 4284843632
-1031.2411 -158.75011 46.610435 4284843631
-1028.7379 -158.7955 46.387901 4284843636
-1026.17 -158.87418 46.349915 4284910194
-1023.7963 -158.77313 46.089035 4285238904
-1021.2466 -158.69812 46.482277 4285371003
-1018.8576 -158.76045 46.32003 4285830526
-1016.0735 -158.81786 46.386013 4286159750
-1013.7184 -159.18645 46.692722 4285502591
-1011.287 -159.24451 46.473015 4286094213
-1008.749 -159.06007 45.891014 4287146648
-1006.4996 -159.30217 45.912224 4287146902
-1003.911 -159.85396 45.944115 4286620816
-1040.3591 -156.94594 46.238235 4285106807
-1038.7888 -156.72906 46.256908 4285370233
-1036.2998 -156.86414 46.100578 4285633407
-1033.8441 -156.96104 46.500916 4285633147
-1031.3407 -157.09216 46.196472 4286225281
-1028.8376 -157.31227 45.72924 4286554000
-1025.2285 -157.44951 45.996887 4287539595
-1021.4201 -157.47159 45.77293 4287804843
-1008.5715 -157.13248 45.460732 4288200360
-1009.1221 -202.58659 48.181396 4283790173
-1033.1498 -200.08357 48.305847 4284645487
-1031.5566 -200.21979 47.889183 4284841836
-1028.515 -200.20702 47.985577 4284645482
-1026.1724 -200.30429 48.770256 4284579435
-1023.8052 -200.32726 48.785976 4284514151
-1021.2951 -200.54205 48.400745 4284513897
-1018.6258 -200.71771 48.784203 4284514154
-1016.2571 -200.89633 48.839409 4284382827
-1013.7195 -200.95746 48.494923 4284382056
-1011.0885 -201.05673 48.6842 4283987558
-1008.7941 -201.07579 49.018353 4283789665
-1006.5687 -200.96037 49.065327 4283657816
-1043.3881 -198.25352 47.734623 4284710250
-1041.8876 -198.3441 47.57193 4284448106
-1039.2565 -198.16005 47.93095 4284644459
-1036.5111 -198.14664 47.929401 4284644714
-1033.848 -199.15671 47.960022 4284382826
-1031.4313 -198.73196 47.735435 4284579433
-1028.5695 -198.67593 47.880341 4284579177
-1026.2219 -198.73976 48.274513 4284513898
-1023.7427 -198.80902 48.345219 4284513642
-1021.2286 -198.75618 48.171673 4284513899
-1018.6743 -198.84033 48.372677 4284448107
-1016.2028 -198.91136 48.052574 4284513902
-1013.7517 -198.89621 48.10347 4284513382
-1011.2325 -198.71413 48.362484 4284184676
-1008.7659 -198.85687 48.188992 4283855711
-1006.2911 -198.86937 48.176044 4283592026
-1004.8699 -197.75294 47.905701 4283459679
-1043.6155 -196.07985 47.848221 4284514151
-1041.0864 -195.95305 48.004883 4284513643
-1039.0212 -196.03499 48.120388 4284579436
-1036.3926 -195.99588 47.937855 4284645226
-1033.907 -195.80675 47.963997 4284579434
-1031.2002 -196.33296 48.184528 4284382570
-1028.7479 -196.23491 48.232586 4284513899
-1026.2256 -196.25981 47.959873 4284513898
-1023.7745 -196.24521 48.155075 4284579689
-1021.2742 -196.23279 47.973618 4284579694
-1018.729 -196.17688 48.083302 4284710764
-1016.2961 -196.12871 48.490589 4284579692
-1013.7848 -196.19574 48.695415 4284448620
-1011.3195 -196.15311 48.287991 4284382056
-1008.7464 -196.24284 48.396996 4284184164
-1006.2109 -196.18126 48.632931 4283658591
-1004.8771 -196.19228 48.585033 4283459929
-1043.4584 -193.61882 47.992649 4284579177
-1041.3406 -193.83298 48.26416 4284448616
-1038.5867 -194.35788 47.888786 4284579432
-1036.0426 -193.74304 48.050667 4284579690
-1033.6399 -193.77184 48.230251 4284645226
-1031.2372 -193.7856 48.277084 4284579435
-1028.728 -193.78636 48.060272 4284579692
-1026.2782 -193.71805 48.063763 4284514156
-1023.8549 -193.79565 48.05777 4284448618
-1021.2011 -193.73499 47.857662 4284514155
-1018.7632 -193.77544 48.25761 4284579946
-1016.1772 -193.64201 48.611866 4284580206
-1013.749 -193.70445 48.325485 4284645226
-1011.2737 -193.6931 48.502121 4284448106
-1008.7715 -193.75551 48.353241 4284250471
-1006.3564 -193.81343 48.049191 4283987040
-1004.9132 -193.62743 48.37595 4283789913
-1043.4364 -191.93787 47.629681 4284382569
-1040.5161 -190.43404 47.901348 4284317803
-1038.4265 -190.69427 48.010059 4284448624
-1036.1295 -191.21278 47.945938 4284710505
-1033.6393 -191.32091 47.76833 4284513897
-1031.2352 -191.27637 47.970135 4284710764
-1028.6874 -191.37852 47.85598 4284317548
-1026.502 -191.15408 47.667961 4284514153
-1023.7501 -191.15504 47.851589 4284514155
-1021.2546 -191.24071 48.090782 4284579949
-1018.7561 -191.1731 48.286781 4284645741
-1016.3003 -191.2861 47.879444 4284711022
-1013.7314 -191.15385 48.240185 4284580202
-1011.2954 -191.27441 48.197777 4284579692
-1008.7592 -191.185 47.742592 4284185705
-1006.2369 -191.20924 48.364262 4284119396
-1004.6659 -191.16173 48.572067 4284184679
-1043.1167 -187.62932 47.942871 4284841831
-1041.0358 -188.50604 48.05698 4284514411
-1038.6986 -188.81174 47.947701 4284645226
-1036.1321 -188.94482 47.779972 4284776553
-1033.7244 -188.70798 47.732903 4284579692
-1031.2303 -188.91814 47.772129 4284579689
-1028.4764 -188.53946 47.58876 4284579689
-1026.2832 -188.81018 47.936455 4284645225
-1023.6866 -188.69826 48.061531 4284645483
-1021.2599 -188.81523 47.899685 4284645483
-1018.6401 -188.74821 47.808117 4284514926
-1016.2289 -188.74406 47.905941 4284711532
-1013.821 -188.80098 48.01437 4284645998
-1011.2705 -188.82747 47.69928 4284711790
-1008.7602 -188.69676 48.084015 4284514666
-1006.2683 -188.73788 48.432919 4284120424
-1004.5468 -188.65079 48.856628 4283858021
-1043.1506 -186.47108 47.95578 4284579431
-1041.3574 -186.45459 47.884182 4284579948
-1038.505 -186.05862 47.936405 4284711020
-1036.1862 -186.2475 47.81255 4284711020
-1033.7394 -186.24414 47.768402 4284645485
-1031.1703 -186.22961 47.842514 4284579947
-1028.7437 -186.22983 47.952641 4284711023
-1026.1885 -186.24492 48.188152 4284579951
-1023.7642 -186.19365 48.001888 4284579434
-1021.2823 -186.12914 48.196575 4284645485
-1018.7156 -186.15422 48.197514 4284645741
-1016.3531 -186.41211 47.889183 4284646252
-1013.7613 -186.1992 48.195599 4284580972
-1011.2371 -186.23605 48.454792 4284777840
-1008.7778 -186.14226 48.55434 4284515181
-1006.2482 -186.24271 48.411003 4284252265
-1004.3841 -186.26479 48.389748 4284054885
-1043.3716 -184.97292 47.699829 4284514152
-1040.8496 -184.50896 47.801121 4284579945
-1038.8032 -184.56578 47.71793 4284711018
-1037.3022 -184.81621 47.514771 4284383087
-1033.0701 -183.77512 47.676884 4284579948
-1031.2355 -183.73593 47.920181 4284710763
-1028.9019 -184.44638 47.796253 4284645227
-1026.1268 -184.74379 47.801514 4284776555
-1023.066 -184.42096 47.772682 4284580203
-1021.5764 -184.38664 47.962811 4284711532
-1018.743 -184.02043 47.612648 4284711533
-1015.6208 -183.53979 47.636459 4284711530
-1013.7342 -183.85149 47.792572 4284711791
-1011.3257 -184.4734 47.956181 4284843377
-1008.4467 -184.00723 47.965878 4284712556
-1006.2123 -183.86552 47.93494 4284449641
-1004.332 -183.9301 47.87114 4284120418
-1040.7733 -180.31151 47.746834 4284645226
-1038.8129 -180.63785 47.802078 4284579691
-1036.1553 -180.9846 47.831974 4284645228
-1033.8387 -181.23155 47.725346 4284645480
-1031.1541 -181.14772 47.627968 4284711019
-1028.7023 -180.66397 48.017948 4284711275
-1026.1534 -181.06792 47.87896 4284645740
-1023.7497 -180.8396 47.67028 4284645737
-1021.1907 -180.98277 47.753689 4284711277
-1018.7736 -181.18367 47.976242 4284842605
-1016.1941 -181.0955 48.296768 4284777579
-1013.7627 -181.24179 47.970291 4284777581
-1011.291 -181.03209 48.194099 4284777839
-1008.7916 -181.36935 48.066525 4284843887
-1006.1964 -181.17899 47.789314 4284778096
-1004.2082 -181.12892 48.106453 4284383081
-1042.7087 -178.9314 47.749123 4284382573
-1041.1775 -178.84387 47.940712 4284644972
-1038.7128 -178.73123 48.107876 4284579946
-1036.3766 -179.25739 47.963367 4284579691
-1033.6107 -179.13152 47.707718 4284710765
-1031.4052 -179.27945 47.709316 4284711276
-1028.8069 -179.21594 48.054138 4284579948
-1026.0405 -179.2099 47.796688 4284514158
-1023.7493 -178.77254 47.65646 4284711275
-1021.2344 -178.78471 48.129822 4284645741
-1018.8034 -179.02504 48.344818 4284711791
-1016.2676 -179.1769 47.953136 4284777581
-1013.6282 -178.93146 48.143623 4284646252
-1011.4346 -179.04747 48.16029 4284909165
-1009.1671 -179.07674 47.933811 4284778096
-1006.3121 -178.72316 47.853065 4284778607
-1004.0083 -178.73801 48.153236 4284515181
-1041.126 -177.40022 47.609413 4284645483
-1038.853 -176.20758 47.630768 4284907883
-1028.3203 -175.16815 47.689339 4284645227
-1026.0231 -176.12875 47.635006 4284711275
-1023.9793 -176.48145 47.580223 4284645741
-1020.4298 -176.47342 47.63269 4284712049
-1018.3622 -175.48984 47.675045 4284777068
-1017.0092 -176.27464 47.512119 4284711789
-1013.8205 -177.13203 47.811298 4284973940
-1010.3206 -175.44861 47.791214 4284647025
-1008.6858 -175.84801 48.029778 4284843889
-1006.2108 -176.17319 47.986492 4284844402
-1003.6946 -176.26984 48.046772 4284844399
-1041.2069 -173.5278 47.747013 4284580201
-1039.2064 -173.89229 47.578876 4284645230
-1035.8628 -174.26524 47.558105 4284776819
-1031.0046 -173.49461 47.777985 4284776552
-1028.8112 -173.74101 47.849796 4284645486
-1026.5793 -173.79651 47.682648 4284514668
-1023.9264 -173.82768 47.524811 4284776558
-1020.6092 -173.79117 47.743389 4284711533
-1019.1448 -173.91171 47.918858 4284645740
-1013.2179 -173.04091 47.993942 4284777324
-1011.1547 -173.57806 48.025578 4284842865
-1008.8123 -173.74577 48.049736 4284712302
-1006.2598 -173.7928 47.884937 4284778353
-1003.7668 -173.74876 47.777851 4284976245
-1002.3997 -173.2935 48.943134 4285502078
-1041.5796 -172.25056 47.619709 4284514156
-1036.515 -170.38049 47.623779 4284448622
-1031.339 -171.64354 47.72752 4284776299
-1028.7773 -171.32552 47.664803 4284645483
-1026.3547 -171.38422 47.553417 4284645740
-1024.6074 -171.72075 47.505524 4284645733
-1020.5341 -172.43091 47.552765 4284645739
-1017.6887 -170.8065 47.807228 4284712561
-1016.3924 -170.8196 47.789818 4284777328
-1013.6763 -171.22977 48.029011 4284711789
-1011.2448 -171.58739 47.853508 4284712047
-1008.493 -171.01445 47.867771 4284777837
-1006.1996 -171.24913 47.853523 4284843888
-1003.8063 -171.17047 47.856472 4285041267
-1001.4908 -171.52583 48.523243 4286555022
-998.99261 -171.83725 48.933552 4288134316
-1040.3986 -167.94926 47.701679 4284776296
-1038.66 -168.93858 47.543358 4284645483
-1036.8146 -169.65733 47.618988 4284711024
-1030.5725 -169.17836 47.631165 4284317801
-1028.5403 -169.52385 47.586166 4284580205
-1027.0179 -169.76151 47.534546 4284318318
-1021.6106 -169.16125 47.521931 4284645741
-1018.1627 -169.27223 47.770245 4284842606
-1016.043 -169.21062 47.955925 4284646254
-1013.7791 -169.49733 47.816612 4284712301
-1010.8812 -169.03954 47.744232 4284712304
-1008.8519 -169.3463 47.806202 4284843119
-1006.4409 -169.61162 47.705532 4284843630
-1003.4139 -168.66425 47.644238 4285107060
-1001.8898 -168.76755 47.745098 4285501821
-1040.4299 -167.12788 47.566254 4284580206
-1032.6499 -167.03844 47.657837 4284973165
-1024.002 -165.35364 47.524689 4284973677
-1016.0856 -167.3358 47.828125 4284842349
-1010.4146 -165.16685 47.63623 4285237363
-1008.6404 -165.40027 47.687 4284778096
-1006.231 -165.74826 47.758495 4284909426
-1003.6304 -166.22417 47.782394 4284975989
-1001.9255 -166.34387 47.836479 4285108083
-1033.0927 -162.82881 47.622772 4284646253
-1030.9445 -162.99863 47.613834 4284580718
-1028.6177 -163.18985 47.937553 4284712044
-1026.3203 -163.64226 47.568314 4284711534
-1024.6477 -163.64142 47.665886 4284842861
-1021.255 -162.75139 47.909485 4284646510
-1018.6147 -162.85246 47.82159 4284974957
-1015.729 -163.06372 47.649242 4284909163
-1013.8824 -163.3493 47.728264 4284777844
-1011.2018 -163.65936 48.001396 4284909426
-1008.7639 -163.71477 48.075085 4284843889
-1006.2363 -163.84145 47.904457 4284778868
-1003.6898 -163.71291 48.008495 4285041523
-1001.9748 -163.57341 48.08234 4284845682
-1033.2134 -161.86824 47.612499 4284777327
-1031.4893 -161.75255 47.691227 4284842863
-1029.158 -161.9902 47.945312 4284646768
-1026.519 -162.46913 47.550797 4284645996
-1022.6293 -161.77939 47.902088 4284909418
-1021.2819 -161.92389 47.807617 4284712563
-1018.4694 -162.06105 47.621853 4284778095
-1016.3187 -161.98456 47.541595 4284843634
-1013.0039 -161.35065 47.73679 4284909167
-1011.3236 -161.48221 47.795231 4284909426
-1008.6999 -161.95663 48.037025 4284778609
-1007.1151 -162.37154 47.558105 4285303408
-1004.5769 -162.24939 47.826172 4285106548
-1001.554 -161.90381 47.785606 4285041524
-1018.5803 -158.7139 47.74588 4284844659
-1016.5942 -159.06676 47.663876 4285172596
-1013.8178 -159.43555 47.629017 4284778864
-1011.8996 -159.80959 47.577332 4284582261
-1034.2493 -157.30486 47.509583 4284777849
-1004.1301 -192.571 52.15155 4284116056
-1004.1985 -191.78725 51.082474 4284249960
-1003.8889 -189.49727 51.756462 4284579690
-1003.4866 -186.31647 51.258728 4284447587
-1003.1682 -183.4736 50.569412 4284316771
-1002.7679 -180.6185 51.742348 4284776036
-1002.6609 -178.72389 50.657143 4284383086
-1002.2511 -175.57986 51.072731 4286881408
-1001.6187 -173.13481 51.592884 4287146643
-999.146 -173.06923 51.774994 4288266926
-1000.7979 -172.15262 51.018276 4288068517
-998.7016 -171.89279 51.092693 4288397228
-1004.0546 -193.53261 53.276882 4283919960
-1004.1196 -192.06429 52.656982 4284116832
-1003.5747 -188.25562 53.204498 4284579432
-1003.5667 -187.25786 52.695618 4284120420
-1002.1558 -175.39977 53.390381 4286816385
-1001.0358 -173.36804 53.85289 4287805608
-999.15869 -173.65448 53.702347 4288397742
-1000.5826 -172.37617 52.75708 4288332205
-1002.5948 -190.83606 57.491669 4284842087
-1001.8762 -191.01018 57.396019 4284580206
-1000.1862 -185.79546 57.489918 4284449389
-999.71448 -186.01663 57.478485 4284776815
-1002.3028 -177.61555 56.446716 4284448884
-1000.7275 -175.37859 57.141907 4286028164
-999.33368 -175.52718 56.885036 4286685836
-1000.8126 -174.38834 56.157391 4287936678
-998.82178 -174.03984 55.919628 4288397485
-1001.281 -192.57936 58.595806 4284776300
-1002.9215 -191.27052 58.420715 4284711533
-1001.117 -191.49092 58.195644 4284711277
-999.92627 -190.0594 57.97937 4284777076
-1002.8688 -189.01598 57.977783 4284777581
-1001.2897 -188.70497 58.414856 4284449386
-999.79205 -188.52664 58.437202 4284514923
-1002.6721 -186.18546 58.365173 4284843119
-1001.2784 -186.31111 58.210258 4284645738
-999.6723 -186.72765 58.079418 4284842095
-1002.7434 -184.75804 57.556854 4284907887
-1001.2036 -183.8251 57.870895 4284580459
-999.46344 -183.73106 58.232502 4284908143
-1001.0219 -181.32283 58.024384 4284908653
-999.41711 -181.17374 58.598545 4284711533
-1001.0903 -178.71492 58.164566 4284843117
-999.29895 -178.81522 58.196205 4284646508
-1000.917 -176.57658 57.744213 4284974958
-999.11627 -176.48888 58.113792 4285237876
-971.33771 -175.05113 59.655884 4288396717
-968.67767 -175.31329 59.579468 4288396717
-966.68042 -175.59776 59.508301 4288200876
-998.22241 -174.17145 57.74831 4288331690
-993.67578 -172.67081 58.698792 4288659890
-990.99579 -172.94524 59.092957 4288397235
-995.97375 -172.20683 59.879578 4288332205
-999.45929 -190.5583 60.957596 4284776302
-999.50903 -189.36989 60.464874 4284842354
-999.17511 -186.77542 60.937893 4284580462
-998.95508 -184.68028 60.632141 4284253030
-998.68146 -181.29449 61.292969 4284711277
-998.43811 -179.08806 60.441986 4284711538
-998.13934 -176.06332 61.533253 4284778092
-966.84436 -175.51323 61.289627 4288397483
-997.87213 -173.65634 61.42128 4287870116
-993.58588 -172.60744 61.441223 4288529076
-981.26294 -174.14735 62.482666 4288528044
-977.79211 -174.39798 61.846146 4288527018
-977.2959 -174.37589 61.858948 4288527791
-971.99237 -174.93256 61.10146 4288462509
-997.5863 -171.95392 61.334106 4288528816
-996.77808 -172.16039 61.122845 4288528301
-999.09662 -187.17805 63.811707 4285038955
-998.81689 -184.75093 64.04715 4285104496
-998.57648 -182.13 63.419373 4284514914
-998.31396 -179.29295 63.481506 4285104751
-998.03253 -176.86391 63.77066 4284907882
-969.4801 -175.23215 64.944733 4288461741
-966.83771 -175.55438 63.685627 4288396711
-961.05121 -176.1118 64.358559 4288265132
-997.78687 -173.97722 63.432617 4285567102
-997.43817 -172.65993 64.767395 4287543199
-993.49951 -172.58798 64.042786 4288593840
-980.83411 -174.02933 63.803379 4288331434
-978.88599 -174.09161 63.773361 4288134061
-977.27094 -174.20949 63.876404 4288462508
-971.9715 -174.93944 63.593689 4288265897
-997.52863 -171.95287 62.853333 4288659888
-996.81934 -172.24626 63.916611 4288528558
-997.88983 -190.01479 67.462364 4284448362
-992.93079 -190.87801 67.310913 4284383597
-992.10529 -191.03798 67.242874 4284514414
-998.99371 -187.65558 66.06604 4284777325
-995.64001 -187.86606 67.378815 4284776566
-994.974 -187.98671 67.490906 4284514415
-986.06567 -188.69832 67.424622 4284841835
-980.49066 -187.96837 67.296173 4284579688
-998.74811 -185.92871 66.216957 4284711532
-996.55457 -186.80891 67.358185 4284579694
-980.51239 -187.04546 67.387611 4284776291
-998.24152 -183.67773 66.74704 4284514929
-997.08081 -182.94972 67.392387 4284711535
-992.80792 -182.66545 67.307068 4284841578
-991.03107 -183.23975 67.162048 4284514924
-985.69153 -182.72148 67.367294 4284580209
-983.9621 -183.26508 67.165916 4284514925
-981.41095 -183.10164 67.435173 4284776303
-968.38818 -183.40857 67.349342 4284711024
-966.81677 -183.57582 67.445808 4284645998
-998.02527 -181.7756 67.165863 4284711534
-997.10419 -182.13997 67.310188 4284842346
-988.0343 -181.4641 67.477127 4284842347
-985.93445 -181.82512 67.399544 4284710765
-983.96985 -182.10921 67.202728 4284580720
-968.79028 -182.38197 67.35498 4285170030
-997.94714 -178.52287 66.789917 4284777070
-996.72437 -177.68182 67.234375 4284908401
-990.62286 -178.1512 67.081108 4284843376
-975.49683 -177.57094 66.834717 4284842346
-973.29608 -177.87529 67.405487 4284777327
-972.20245 -177.53667 67.371155 4284384879
-964.96362 -177.80981 67.356842 4285040494
-958.91492 -177.87434 67.107773 4284515181
-997.68744 -176.76076 66.664688 4284777583
-996.74786 -176.87227 67.148399 4284973935
-993.53418 -175.9016 67.088959 4284646512
-991.37463 -176.46188 67.012978 4284843374
-988.78412 -177.18158 67.448517 4284908397
-978.72931 -175.16728 67.479431 4284581742
-975.88831 -176.14041 67.387352 4284843888
-974.01312 -176.37955 67.376778 4284778351
-972.21088 -177.2086 67.364441 4284450155
-969.47278 -175.15431 66.668839 4287344809
-965.98108 -175.97142 67.053078 4286291081
-963.96649 -176.54205 67.228203 4285567096
-961.06152 -176.02257 66.113937 4287935647
-958.85065 -176.45541 66.552841 4286883474
-995.83221 -173.44504 66.929115 4285632378
-993.92841 -173.2505 66.937553 4286027908
-991.47974 -173.74135 67.167778 4285765247
-988.63812 -173.17857 66.512794 4287540893
-985.89551 -173.45993 66.58979 4287409044
-983.94104 -173.78452 66.771454 4286817683
-981.28796 -174.10316 66.749344 4287014029
-978.63593 -174.14397 66.650375 4287541149
-976.50873 -174.54568 67.008652 4286948241
-974.08704 -174.71628 66.997215 4287343254
-971.94958 -174.894 66.373459 4287607192
-996.35602 -172.34396 66.172874 4288131996
-975.26068 -192.52138 68.314941 4284579951
-973.77118 -192.75696 68.748734 4284645227
-971.47186 -192.74628 68.821068 4284383338
-968.27759 -193.08376 69.267067 4284776040
-966.39435 -192.98764 68.526573 4284513898
-963.59039 -192.90103 69.23851 4284645227
-995.39648 -190.05634 68.036926 4284710252
-993.51764 -190.29605 68.095978 4284645228
-991.27972 -190.37828 67.831764 4284841578
-988.72382 -190.35233 68.164993 4284579692
-986.18097 -190.56863 68.500458 4284579439
-983.79474 -191.01395 68.399948 4284579690
-981.27362 -191.0219 68.184601 4284579437
-978.69873 -190.81133 68.600395 4284710249
-976.19482 -191.04121 68.005836 4284579691
-973.75677 -191.24371 68.603821 4284579435
-971.23993 -191.37103 68.949005 4284448362
-968.72754 -191.31781 68.851959 4284644968
-966.22815 -191.23289 68.604332 4284448108
-963.7785 -191.30595 68.6623 4284579433
-961.2619 -191.2917 68.501884 4284513643
-997.93213 -188.57274 68.186317 4284645230
-996.25684 -188.67226 68.161728 4284579692
-993.75677 -188.79831 68.05658 4284710765
-991.23645 -188.65041 68.159286 4284711019
-988.80414 -188.79543 68.354912 4284710763
-986.19232 -188.75754 68.250969 4284579947
-983.74445 -188.82053 68.030594 4284579691
-981.2157 -188.72894 68.492432 4284644970
-978.79706 -188.71835 68.052887 4284645227
-976.32562 -188.74838 68.155457 4284711020
-973.6676 -188.79373 68.773178 4284514154
-971.25555 -188.7505 68.930656 4284644973
-968.78558 -188.76369 68.430687 4284710251
-966.18488 -188.72655 68.540031 4284644971
-963.76038 -188.71397 68.168488 4284710249
-961.22003 -188.80635 68.528488 4284579436
-959.30341 -188.7776 68.987091 4284382827
-998.03015 -186.33272 68.098877 4284580204
-996.1452 -186.09935 67.981125 4284579948
-993.7926 -186.35136 68.091049 4284776814
-991.17004 -186.23055 68.670464 4284645226
-988.7066 -186.21498 68.57914 4284580204
-986.31702 -186.27945 68.067902 4284579948
-983.71802 -186.14551 68.230408 4284645484
-981.40253 -186.29283 68.111603 4284710762
-978.66718 -186.18053 68.457054 4284645485
-976.19958 -186.20758 68.76004 4284645226
-973.77435 -186.23172 68.694244 4284579692
-971.27789 -186.24388 68.37394 4284579689
-968.80609 -186.27766 68.733147 4284711024
-966.23547 -186.29059 68.489922 4284644970
-963.74365 -186.16008 68.401062 4284645225
-961.32574 -186.2506 68.9394 4284579180
-959.23004 -186.13132 69.151772 4284579439
-997.93512 -184.04808 67.875038 4284841836
-996.16052 -183.77011 68.01429 4284711279
-993.71692 -183.80174 68.272842 4284711274
-991.30096 -183.90843 68.409172 4284711274
-988.76105 -183.70221 67.973595 4284645741
-986.29541 -183.75702 68.22287 4284645743
-983.68103 -184.11108 67.942329 4284645484
-981.2121 -183.93661 67.851311 4284645484
-978.77985 -183.9109 68.149536 4284645230
-976.20306 -183.58696 68.394318 4284645228
-973.78589 -183.76422 68.236961 4284711276
-971.15588 -183.75868 68.274635 4284711018
-968.89838 -184.12828 68.128036 4284776558
-966.06421 -184.04727 67.988228 4284710765
-963.71399 -183.69246 68.31636 4284645229
-961.19604 -183.76396 68.88929 4284645484
-959.15497 -183.81841 68.232155 4284579949
-997.76807 -180.67955 68.126862 4284711276
-996.08673 -181.05893 68.100769 4284711274
-993.73901 -181.18246 67.946091 4284711276
-991.28125 -181.31276 67.917206 4284645485
-988.80676 -181.23665 67.933365 4284776814
-986.42371 -181.0862 67.772911 4284776300
-983.59375 -180.98151 68.087074 4284580207
-981.3194 -181.22795 68.412766 4284776812
-978.82214 -181.26855 68.489738 4284579947
-976.26373 -181.23694 68.100441 4284645997
-973.7486 -181.2079 68.406471 4284580206
-971.29913 -181.23433 68.158897 4284645741
-968.76117 -181.06531 68.179787 4284645999
-966.29028 -181.34465 68.371872 4284580720
-963.66522 -181.24724 68.687782 4284777071
-961.32117 -181.26076 68.457535 4284711535
-959.05774 -181.20358 68.579094 4284645743
-997.72931 -178.86896 68.597206 4284711533
-996.26874 -178.71042 68.255318 4284777325
-993.75482 -178.68987 67.9077 4284777326
-991.35162 -178.90984 68.180908 4284645740
-988.77301 -178.79314 67.862015 4284777069
-986.21295 -178.65147 68.030121 4284777584
-983.7959 -178.75719 68.46888 4284777325
-981.15277 -178.69218 68.623482 4284777068
-978.7298 -178.77916 68.190102 4284711279
-976.2854 -178.71631 68.504189 4284711790
-973.85388 -178.91687 68.289772 4284777325
-971.30493 -178.74043 68.208275 4284777324
-968.68115 -178.72777 68.440903 4284712047
-966.21936 -178.73228 68.773125 4284646256
-963.78931 -178.79039 68.52404 4284777583
-961.17883 -178.68991 68.305618 4284843118
-958.87402 -178.71344 68.608612 4284645738
-996.01477 -176.0029 67.72123 4284777841
-993.79156 -176.36276 67.624252 4284711790
-990.96661 -176.0078 67.656006 4284778096
-988.7738 -176.26514 67.636253 4284843374
-986.19879 -176.31599 68.047516 4284843375
-983.72913 -176.32246 67.912781 4284646510
-981.27563 -176.27296 67.74231 4284777327
-978.76703 -176.23309 67.653267 4284712304
-976.68732 -176.62233 67.710732 4284908911
-973.30951 -176.03601 67.82769 4284909422
-971.18317 -176.22986 68.021835 4284975216
-968.81805 -176.38 68.19236 4285040756
-966.49054 -176.59793 68.032814 4285041014
-963.3634 -177.02858 67.795815 4284909425
-961.19019 -176.61217 67.902634 4285304187
-958.64026 -176.83279 67.779861 4285631863
-996.59808 -174.04703 67.964554 4284974963
-993.58557 -174.08046 67.596367 4284844144
-991.18756 -173.75536 67.810509 4285172598
-988.78583 -173.92244 68.253716 4285172855
-986.32593 -174.14116 68.445122 4285106547
-983.82794 -174.36424 67.738037 4285172856
-981.35101 -174.59486 67.607895 4285107060
-978.83209 -174.52986 67.633156 4285633407
-976.21973 -174.64783 67.585289 4286486920
-973.08765 -174.85506 67.954269 4286487678
-971.93439 -174.97197 67.965698 4285962375
-968.82605 -193.1483 70.516541 4284841070
