# .PCD v0.7 - Point Cloud Data file format
VERSION 0.7
FIELDS x y z rgba
SIZE 4 4 4 4
TYPE F F F U
COUNT 1 1 1 1
WIDTH 1008
HEIGHT 1
VIEWPOINT 0 0 0 1 0 0 0
POINTS 1008
DATA ascii
-992.83826 29.866905 4.2310181 4284636758
-1036.8418 34.636841 4.2865524 4284900442
-1033.525 34.871738 3.8378663 4285230186
-1031.9257 34.929184 4.0121765 4285689965
-1001.303 34.69191 4.7709427 4284704861
-998.83472 34.681622 4.7316327 4284769628
-996.12842 34.712879 4.2463989 4285097823
-1042.8025 4.7757149 6.8073425 4284045388
-1042.6189 11.880801 6.8465943 4283456087
-992.6991 27.310349 7.2256775 4284637011
-991.13599 26.710421 5.8982239 4284769106
-992.77264 28.566065 5.5466003 4284572250
-1041.3207 30.659813 6.736145 4285165674
-1039.1949 32.012466 7.3337402 4285624687
-993.16913 31.826216 7.0306244 4284703843
-1038.2285 33.706074 6.3921776 4285228903
-1036.6818 33.913082 6.2390747 4285032546
-1033.2483 33.752045 7.434741 4285295720
-1030.8798 34.185146 6.4655342 4285493101
-1028.9264 34.314884 6.2449813 4285493358
-1005.8145 34.076851 5.7068219 4284966757
-1003.3564 34.024094 5.9274597 4284966490
-1001.5088 33.978199 6.4052429 4285033054
-998.86292 33.907513 6.1981025 4284900701
-996.24652 33.939632 6.4579358 4285295201
-994.00238 33.762634 6.2010765 4284835421
-1042.6393 -6.8838501 9.6934814 4283391321
-1042.6169 2.2859268 8.3638306 4284375129
-1042.6667 3.4894474 8.1072083 4284046674
-1042.469 9.1737347 7.8987184 4283523933
-1042.5352 10.887985 7.5909424 4283783512
-1042.4862 10.374634 8.0467529 4283523160
-1042.1626 13.846337 8.7449036 4284444000
-992.65918 26.698654 8.2072144 4284505943
-993.04565 29.227901 9.3139496 4284638295
-1024.9828 32.420639 9.8286743 4285689962
-995.84735 32.331596 9.5638676 4285098849
-993.7002 31.585747 8.8538551 4284899937
-1038.1984 32.869564 8.3887529 4285360485
-1033.3018 33.19857 8.5789795 4285558380
-1031.2186 33.202557 8.6463871 4285756018
-1028.7988 33.271481 8.5651855 4285887087
-1027.4508 33.079102 9.8721313 4285953136
-1005.4459 33.178322 8.1533203 4285230441
-1003.5878 32.924236 9.0804892 4285098851
-1001.3564 33.293564 8.174367 4285097821
-998.80402 33.319759 7.5996704 4285097818
-996.35498 33.004333 8.6281891 4285164130
-994.2132 32.950455 8.433569 4284835169
-1040.6615 -5.3520093 12.320836 4284646517
-1039.7721 -5.4636917 12.34965 4284907893
-1040.7273 -3.8865383 12.309529 4284777329
-1039.6973 -4.0047545 12.267201 4284973937
-1040.7053 -1.2080055 12.326438 4284843119
-1040.8636 1.3456644 12.203663 4284973935
-1039.6842 1.3201534 11.843458 4284842604
-1041.0093 3.3958375 12.258442 4284974188
-1039.713 3.1049817 12.029297 4284777328
-1041.3386 5.740015 12.221242 4284842353
-1040.0673 11.877541 12.463054 4284908915
-1039.5436 11.890114 12.444905 4284974196
-1040.7877 12.733364 12.46991 4284711529
-1039.514 12.997542 12.421041 4284777330
-1040.8314 16.964787 11.946738 4284712046
-1039.6382 17.079496 12.096497 4284646256
-1040.8147 18.848675 11.785723 4284843122
-1039.5685 18.774307 11.820068 4284777586
-1040.7844 21.339237 11.543715 4284843120
-1039.562 21.218283 11.801424 4284909169
-1040.735 23.648764 11.508029 4284777839
-1039.5364 23.764555 11.733987 4284974709
-1040.6306 26.19978 11.940262 4284974960
-1039.5824 26.225805 11.910601 4284778608
-995.01349 27.088974 12.161113 4284178005
-993.65558 27.026739 11.974933 4284505939
-1040.6263 28.406921 11.714992 4285303670
-1039.6029 28.880316 11.404091 4285830529
-995.04047 28.135225 12.140462 4284048468
-993.70319 28.368628 11.855628 4284506455
-1039.5959 30.288498 10.738525 4287409313
-1036.5312 32.48008 10.224463 4285558634
-1033.6958 32.235153 10.558289 4285756527
-1027.8738 32.455086 11.248413 4285953140
-1027.0062 31.987244 10.943339 4286019700
-1003.6525 32.228039 10.165507 4285230691
-995.97333 31.933764 11.365977 4285098592
-994.34192 31.779593 12.343307 4284769375
-1033.3842 32.559422 10.113811 4285690226
-1031.2859 32.611687 10.043501 4285690735
-1027.4183 32.692001 10.236206 4285953643
-996.9552 32.552597 10.162537 4285360215
-1040.9088 -10.328759 12.731214 4284711793
-1039.8219 -11.176188 12.931274 4284777072
-1040.9189 -8.7382774 13.088672 4284842863
-1039.7338 -8.5834703 12.997416 4284777073
-1040.9504 -6.5576167 13.187568 4284711793
-1039.6923 -6.6331301 13.150152 4284711536
-1041.4363 -2.8309555 12.786926 4284909163
-1039.691 -2.7871399 12.726501 4285170796
-1041.4659 -1.6091245 12.785065 4285039723
-1039.6257 -1.1793258 12.717883 4284777837
-1039.2468 0.26346397 13.770554 4284580972
-1040.8671 4.0759435 12.641824 4284777838
-1039.692 4.3748798 12.697151 4284777586
-1040.7509 6.5085545 12.640061 4284777075
-1039.7405 6.2949681 12.67225 4284580463
-1040.799 8.8682604 13.362993 4284908658
-1039.6578 9.0182962 13.395059 4284712307
-1040.8378 11.196141 12.846393 4285039724
-1039.5808 10.688877 12.942841 4284973939
-1040.6688 13.771942 12.819015 4284908910
-1039.6155 14.169193 12.798676 4284974449
-1040.5588 15.762986 12.912375 4284974706
-1039.6152 15.772153 12.737561 4284908654
-1038.6312 18.101654 14.906982 4285301882
-994.51141 21.758278 13.906403 4284571992
-995.24438 23.890366 13.495778 4284639576
-994.19995 24.086531 14.032685 4284440406
-995.3006 25.817455 13.224878 4284575836
-993.93274 26.076294 13.115723 4284440917
-1038.5719 28.924595 14.552673 4286356877
-995.27399 29.50351 13.347846 4284839525
-994.28571 29.199787 13.264864 4284440663
-1038.6025 30.32016 14.594666 4287410084
-1036.2336 31.393379 13.926025 4286681754
-1025.7339 31.189594 14.221863 4286815388
-1023.9943 31.233212 14.161987 4286486160
-1021.5577 31.294456 14.077332 4286353040
-995.5752 31.056702 13.230355 4285363309
-994.18109 31.0385 13.200453 4284638046
-1038.8467 -11.339188 16.427551 4284909425
-1038.9534 -8.6283207 15.899763 4284646259
-1038.7449 -6.6722503 16.50354 4284777067
-1038.713 -2.9818828 16.266907 4284908659
-1038.7714 -1.1345196 16.092911 4284843118
-1038.415 1.6760422 17.079321 4284712046
-1038.4447 3.0378368 17.122519 4284974451
-1038.6428 10.339398 16.8514 4284843628
-1038.5173 17.807896 16.305969 4285040239
-994.20184 21.262926 16.099621 4284178521
-993.38947 23.568501 16.29693 4284112471
-1038.3263 27.057648 17.190451 4284909940
-992.78851 25.061958 15.324036 4284768089
-1038.4185 27.615608 16.154541 4285237876
-995.63995 28.626638 16.051514 4285170800
-1036.3368 31.048559 15.803187 4287934112
-1033.8363 31.011627 16.077892 4287802783
-1032.043 31.178675 15.53243 4287867031
-1029.0853 31.093216 16.304382 4287541154
-1025.5792 30.687115 16.532227 4287542176
-1023.1316 30.777866 16.762726 4287803806
-1021.1746 30.748489 16.495728 4287803552
-1038.4677 -7.1367774 18.142944 4284646257
-1038.2856 0.55656433 18.411224 4284973933
-1038.4243 4.2999363 17.788467 4284711787
-1038.4445 6.2985754 18.158298 4284777326
-1038.5275 8.6326523 17.815029 4284777840
-1038.1718 11.550259 18.844095 4284843117
-1038.2399 13.651335 18.619558 4284515183
-1038.2939 16.221703 18.728149 4284909167
-1037.9779 18.939363 19.180515 4285105525
-1038.0646 21.275221 18.786692 4284974965
-995.02484 21.15435 18.87793 4284573791
-993.33942 21.81399 18.93821 4284374612
-992.27753 22.106396 18.882385 4284375638
-1038.1229 23.698801 18.794138 4284843378
-995.77515 24.485863 19.806488 4285500279
-993.00012 22.808735 18.413774 4284111952
-1038.1602 25.999847 18.278269 4284843895
-995.84412 26.127773 18.848419 4285237878
-1037.7936 27.81205 19.876373 4285171574
-995.68127 29.18235 18.141556 4285697401
-1036.3906 30.673517 17.878153 4287672992
-1034.0061 30.720261 18.485107 4287869089
-1031.991 30.827906 18.272186 4287673504
-1025.9642 30.327423 18.591949 4287738011
-1023.0074 30.425087 18.724426 4287803806
-1021.2534 30.321381 18.999084 4287541914
-1019.9244 30.44384 17.989258 4287344802
-1011.5429 30.417496 18.999512 4287804064
-1008.9313 30.151279 19.108063 4287476127
-1006.6753 30.222626 19.221008 4287411097
-1003.7454 30.275005 18.844299 4287804059
-1000.9252 30.333052 18.581137 4287738013
-998.44812 30.296787 19.647427 4287672739
-997.3136 30.349091 19.596008 4287672738
-1034.3229 -15.015041 22.227448 4284440891
-1026.9752 -15.005943 20.688354 4284315730
-1023.7788 -15.097048 21.873154 4282608483
-1022.0518 -15.053683 21.813395 4283330407
-1036.9502 -14.05146 22.163269 4284580466
-1034.3405 -14.325054 22.217346 4284841579
-1026.6541 -14.619547 21.514416 4284447850
-1023.5939 -14.59861 22.267263 4284251242
-1022.0486 -14.4673 22.109396 4284842094
-999.552 -14.658676 22.32312 4283722076
-1038.2284 -7.9960885 20.976095 4284777582
-1037.9916 -0.45502853 21.926544 4284908656
-1038.0978 0.18289185 20.742981 4285302123
-1037.8698 9.5204697 22.154968 4284778095
-1037.979 10.304317 20.97403 4285039211
-1037.7759 17.205875 21.288086 4285039470
-1037.8385 17.759155 20.64093 4285105259
-995.66998 22.195442 21.455017 4285564274
-993.55792 21.159594 21.099003 4284310356
-992.20239 21.468742 21.254862 4284113489
-995.73438 23.328783 20.210278 4285171829
-1037.7078 26.91526 20.722473 4284909940
-1037.7717 28.662502 20.438751 4285040759
-1036.1084 29.794024 21.985069 4285567612
-1034.2781 29.768988 22.132763 4285633662
-1031.5153 29.791529 22.301285 4285437313
-1028.3286 29.866114 22.120951 4285765758
-1025.6838 29.757763 21.687971 4285634683
-1023.834 29.790226 21.5996 4285963391
-1021.5091 29.84206 21.595953 4286226308
-1018.5383 29.775351 21.904074 4285832071
-1015.2018 29.861862 21.823975 4286357902
-1008.8047 29.745096 21.229177 4286423948
-1006.1263 29.82712 21.142069 4287080333
-1003.9644 29.718781 21.849142 4286882445
-1000.7542 29.862101 21.888037 4287475081
-998.63251 29.758074 21.196489 4286818449
-997.06927 29.830112 21.533432 4286687893
-1036.2988 30.425879 20.833792 4287212181
-1033.3936 30.342291 21.62149 4287015058
-1031.5745 30.264441 21.186728 4287211925
-1028.7089 30.505524 20.775854 4287212442
-1026.5352 30.124922 20.478378 4286687375
-1023.833 30.305443 20.34375 4286950810
-1018.3817 30.017563 20.640686 4287211407
-1015.2726 30.095627 20.533081 4287868564
-1009.0341 30.301491 20.816345 4287803801
-1005.2318 30.224155 20.688354 4287148447
-1004.3665 30.185507 20.670248 4287344543
-1000.9325 30.266857 21.0109 4287738269
-999.01324 30.390223 20.601461 4287738273
-996.57483 30.333302 21.165649 4287606427
-1035.8185 -13.531393 24.24028 4284775529
-1033.6837 -13.673289 23.690397 4284841835
-1031.316 -13.673034 23.589022 4284907370
-1028.821 -13.82275 23.48789 4284841836
-1026.1853 -13.611994 23.680161 4284711789
-1023.6432 -13.357617 24.204147 4284842608
-1021.1832 -13.639583 24.27375 4284711280
-1018.9719 -14.268773 23.858192 4284644970
-1016.3561 -14.486716 23.087934 4284710503
-1013.7103 -14.49392 22.7335 4284711018
-1011.2985 -14.444005 22.586782 4284645223
-1008.7883 -14.309235 23.401659 4284447595
-1006.4468 -14.398561 23.825766 4284118886
-1003.743 -14.507194 23.8396 4283986274
-1001.3099 -14.417514 23.565784 4283985757
-998.91406 -14.507986 22.916393 4283459672
-1031.2848 -12.032416 24.609829 4284711025
-1029.3268 -12.136059 24.581306 4284711278
-1026.9382 -12.282873 24.960373 4284711537
-1023.1351 -11.898171 24.960194 4284580720
-1021.3901 -11.941791 24.901966 4284842863
-1019.3663 -11.740318 24.828196 4284776817
-1011.2902 -10.331978 24.923981 4284842353
-1007.9031 -10.303697 24.867422 4284776045
-1006.1218 -10.21956 24.924284 4284185704
-1003.7053 -10.431727 24.894409 4283725415
-1037.2404 -8.3939247 24.702652 4284711535
-1034.4849 -8.326273 24.607193 4284777584
-1030.6689 -7.8878961 24.988729 4284843118
-1013.3721 -9.6954193 24.981741 4284908652
-1011.3079 -9.6433058 24.910244 4284777074
-1008.587 -9.3448133 24.88566 4284514668
-1006.1916 -9.2568483 24.862003 4284316776
-1003.8998 -9.6315269 24.836477 4283987808
-1034.5096 -7.4632339 24.554016 4284907892
-1031.0348 -7.0926108 24.973389 4284842606
-1026.8907 -7.1044669 24.988791 4284908911
-1036.4076 -3.0645254 24.63228 4284843121
-1034.7246 -2.817337 24.736267 4284712054
-1036.0074 -1.4762926 24.457525 4284843119
-1033.6923 -1.2584094 24.535532 4284908915
-1031.2374 -1.2884041 24.442074 4284777841
-1028.8362 -1.2945091 24.519266 4284646514
-1026.3718 -0.96882325 24.662273 4284908913
-1023.778 -0.77222687 24.65597 4284777332
-1021.6724 -0.56851423 24.641666 4284777844
-1018.6462 -0.35806626 24.933613 4284908659
-1017.3961 -0.49965286 24.92868 4284778351
-1035.8981 1.4029667 24.436651 4284908656
-1033.6786 1.2780553 24.660318 4284908912
-1031.2311 1.2458688 24.80751 4284843122
-1028.8679 1.2188126 24.861513 4284843122
-1026.5153 0.9673664 24.780056 4284908912
-1023.6464 0.55710423 24.685186 4284842865
-1021.1007 1.0069865 24.789137 4284843121
-1018.8088 1.1253573 24.90374 4285039985
-1016.4131 1.5667059 24.920771 4284908658
-1013.8256 1.1685445 24.951571 4284843121
-1012.267 1.1772788 24.898254 4284843635
-1009.44 1.7211037 24.826851 4284974444
-1007.4592 1.6419357 24.753735 4284647025
-1036.1678 3.7776632 23.995729 4284777326
-1033.777 3.7644217 24.133497 4284843121
-1031.2988 3.7016003 24.187347 4284843122
-1028.7015 3.6995609 24.350908 4284908909
-1026.3596 3.8741338 24.361952 4284843120
-1023.8295 4.5292969 24.590075 4284843375
-1021.7081 4.2986703 24.783886 4284843630
-1016.7286 4.3198318 24.985334 4285039981
-1009.0392 2.8079014 24.754547 4284712817
-1036.2461 6.3052678 24.291729 4284974193
-1033.8267 6.3122606 24.205582 4284908654
-1031.2531 6.2429338 24.030045 4284908656
-1028.7006 6.1885109 23.938084 4284712047
-1026.2516 6.1948276 23.887579 4284908656
-1023.8256 6.1065788 23.983646 4284908912
-1021.2992 6.2201142 23.961546 4284843122
-1018.7147 6.2280335 24.066347 4284909170
-1016.2697 6.3557973 24.340109 4284843377
-1013.7541 6.4059653 24.40905 4284974707
-1011.433 6.6228561 24.618607 4284974707
-1008.8248 6.9983392 24.493652 4285106032
-1006.3145 7.0135269 24.791687 4284975219
-1004.1221 7.0751042 24.632513 4284908917
-1001.0508 7.1754427 24.755249 4284778352
-998.73145 7.0511618 24.870047 4284317032
-997.25256 7.0473442 24.964905 4283922537
-1036.1173 7.9812589 24.880621 4285039980
-1033.7522 7.8816147 24.913025 4284712304
-1031.2928 8.0694017 24.779596 4284908913
-1028.5741 7.9086967 24.477634 4284712047
-1025.9988 8.1557283 24.484531 4284777843
-1023.794 8.6917496 24.413221 4284908911
-1021.1552 8.7605753 24.655331 4284974452
-1018.6744 8.9425344 24.740299 4284908914
-1016.2588 8.6829634 24.510031 4284909171
-1013.8605 8.7232618 24.349724 4284909173
-1011.269 8.7832041 24.483303 4285040499
-1008.6979 8.852807 24.182482 4285106292
-1006.2752 8.7360973 24.327784 4285040243
-1003.9049 8.7973833 24.465944 4285041013
-1001.3622 8.7717037 24.443777 4284909939
-998.83783 8.6721954 24.560427 4284449132
-1023.1877 10.617995 24.612167 4284908654
-1020.9131 10.605205 24.914225 4284908913
-1018.6687 11.405323 24.904734 4285039986
-1016.0609 11.152819 24.804838 4284778099
-1013.9492 11.141532 24.74328 4285040496
-1011.1934 10.486743 24.661644 4284974962
-1008.7239 10.565072 24.565617 4284843889
-1006.3345 10.59194 24.537636 4284975217
-1003.4199 10.654441 24.528652 4285172086
-1001.0818 11.03529 24.403736 4285237878
-998.95551 11.122293 24.5186 4284844147
-997.3634 11.344872 24.879883 4284646764
-1036.1193 14.092811 24.769983 4284777840
-1033.5953 14.328689 24.577257 4284974195
-1031.1962 14.558629 24.669586 4284777846
-1028.5852 14.619968 24.701427 4284974703
-1026.9506 14.861766 24.921167 4284974448
-1020.7051 14.735756 24.905243 4285237360
-1013.7426 13.681628 24.725218 4284974707
-1011.3484 14.025441 24.649544 4284843378
-1008.7876 14.274146 24.537291 4285171570
-1006.1859 14.388252 24.575151 4284974962
-1003.8262 14.72005 24.680532 4284778613
-1001.7438 14.503729 24.963882 4285303411
-999.14404 13.523661 24.746441 4284910965
-1036.1111 16.268591 24.721514 4284777583
-1033.7275 16.185112 24.63596 4284908914
-1031.2271 15.947534 24.646645 4284908914
-1028.8674 16.27248 24.627304 4284974451
-1026.5825 16.34676 24.745884 4284843378
-1023.6462 16.449324 24.826422 4284909168
-1021.348 16.363111 24.594101 4284974706
-1018.8685 16.815866 24.746136 4284909167
-1016.4633 17.082073 24.712524 4285171320
-1010.2928 15.481519 24.592884 4285171312
-1008.8051 15.596981 24.493164 4284975218
-1006.2628 15.677671 24.394445 4284974962
-1003.6572 15.942932 24.552933 4285040756
-1001.2394 16.17889 24.839212 4285172599
-999.08704 16.524771 24.750631 4285172851
-1036.0853 18.725924 24.287886 4284908915
-1033.7709 18.706268 24.478228 4284843634
-1031.0138 19.055176 24.523933 4284777841
-1028.9835 18.600004 24.700928 4284909170
-1026.1582 18.740986 24.772575 4284909169
-1023.7419 18.79726 24.819305 4284843634
-1021.3541 18.54896 24.70232 4284909171
-1018.8862 18.667171 24.68915 4285040501
-1015.8161 18.648392 24.642269 4284974194
-1013.8163 19.041634 24.610739 4284975217
-1011.7906 19.235088 24.683193 4284974959
-1009.2776 19.560396 24.908102 4284974965
-1005.2623 19.189884 24.95079 4284843891
-1000.4755 18.663776 24.834641 4285042038
-998.80811 18.208328 24.770199 4285172852
-996.62646 18.429811 24.796164 4285435511
-1036.1379 21.237085 24.12759 4284843379
-1033.8455 21.274151 24.312351 4285039986
-1031.26 21.293188 24.250572 4284843636
-1028.6746 21.318813 24.194471 4284909171
-1026.2662 21.262987 24.042646 4285040501
-1023.8204 21.216747 24.501514 4284974963
-1021.3146 21.508287 24.636892 4284909429
-1019.0081 21.421621 24.628784 4284974964
-1015.963 21.848795 24.606155 4284975474
-1014.8729 22.283531 24.623077 4285565300
-1010.3262 20.315071 24.99176 4285039985
-1009.0633 20.232985 24.939117 4285171827
-1005.8067 20.825968 24.917801 4285106296
-999.31244 20.241409 24.76239 4285239921
-995.50574 20.801306 24.233974 4285367152
-992.13403 20.998337 23.524597 4284047706
-1036.0859 23.876701 24.091799 4284909170
-1033.8743 23.798796 24.313841 4285040241
-1031.3748 23.720919 24.850092 4284909424
-1028.5922 23.79471 24.579308 4285040496
-1026.3098 23.891758 24.372194 4285040497
-1023.7986 23.762186 24.450518 4285040755
-1021.2217 23.556873 24.396971 4284974966
-1018.675 23.66324 24.232775 4284909941
-1016.326 23.819809 23.929359 4284975478
-1013.8184 23.860348 24.180065 4285041270
-1011.3688 24.011293 24.484774 4285041268
-1008.5133 24.153719 24.783943 4285107060
-1006.3367 24.101076 24.695511 4285107317
-1003.7833 24.029922 24.607838 4285238135
-1001.0454 24.572617 24.731924 4285304952
-998.83752 24.585247 24.730999 4285370747
-996.55853 24.234911 24.985157 4285503103
-1036.0713 26.305754 23.892288 4284975217
-1033.592 26.282681 23.882505 4284844148
-1031.2552 26.260355 24.039907 4284975474
-1028.806 26.205469 24.017239 4284909682
-1026.2988 26.356554 24.245543 4285106804
-1023.6564 26.264561 24.584213 4285041010
-1021.476 26.649866 24.6063 4285041013
-1019.7006 27.148916 24.709595 4284975992
-1016.0239 25.595015 24.464012 4285041270
-1013.7464 25.492872 24.613888 4285172596
-1011.304 25.478205 24.630915 4285172595
-1008.7868 25.727545 24.876375 4285107062
-1006.4099 26.038452 24.654421 4285107062
-1003.9189 26.023026 24.621828 4285238645
-1000.9069 26.111233 24.48954 4285304439
-998.81274 26.214413 24.554358 4285436283
-996.74225 25.506948 24.965088 4285634172
-1036.0483 28.53665 23.861309 4285106291
-1033.7118 28.71051 23.885876 4285041782
-1031.2465 28.763271 23.952871 4285042038
-1028.8634 28.764931 23.909002 4285107318
-1026.339 28.582445 23.941381 4285107315
-1023.675 28.570019 23.903746 4284975989
-1021.3205 28.662283 23.870729 4285042040
-1018.8899 28.698978 24.040186 4285107574
-1016.2416 28.732246 24.308693 4285107831
-1013.9767 28.62077 24.649063 4285041780
-1011.1745 29.033587 24.468998 4285371001
-1008.6501 28.90835 24.234625 4285239160
-1006.0591 28.564169 24.472366 4285107830
-1003.994 28.830139 24.208158 4285436538
-1000.8762 28.698666 24.547539 4285371001
-998.74579 28.722832 24.327349 4285437052
-996.97076 28.90641 24.470703 4285568381
-1016.3599 30.279716 23.031982 4287605390
-1004.1122 30.243301 22.852905 4287476388
-996.49048 30.209717 23.913025 4287606943
-1028.2969 -12.658367 25.157837 4284843372
-1025.5435 -12.588825 25.061722 4284842348
-1024.3389 -12.557736 25.01825 4284972399
-1020.1701 -13.126579 25.260763 4285236595
-1018.6464 -13.06425 25.518476 4284973935
-1016.314 -13.054353 25.747984 4284777583
-1013.8077 -13.133385 25.877905 4284777585
-1011.1811 -13.09633 25.777567 4284645743
-1008.7135 -13.005058 25.937027 4284579437
-1006.3307 -13.066595 26.477535 4284381798
-1003.7538 -13.244263 26.689306 4284052582
-1001.1406 -13.239254 26.854753 4283854689
-998.71729 -13.155029 26.693741 4283198041
-997.22571 -12.996936 26.969221 4282999892
-1036.2145 -11.156064 26.271406 4284908397
-1033.7771 -11.101577 26.284372 4284777076
-1031.2206 -10.736938 25.983412 4284646000
-1028.6836 -11.047936 25.722092 4284842864
-1026.1967 -11.085796 25.737865 4284777072
-1023.7664 -10.984185 25.498005 4284711537
-1021.1317 -10.749929 25.301838 4284777330
-1018.8162 -11.218905 25.248806 4284711790
-1016.2505 -11.31576 25.224308 4284777327
-1013.6506 -11.354419 25.489115 4284777073
-1011.238 -11.397506 25.46624 4284711279
-1008.9164 -11.294003 25.465864 4284776043
-1006.2465 -11.420216 25.983992 4284381802
-1003.7028 -11.384834 26.24238 4283987042
-1001.2227 -11.212583 26.301291 4283723870
-998.80151 -11.165476 26.542112 4283394135
-997.25928 -11.23829 26.528168 4282999891
-1036.0209 -8.8959761 25.621094 4284908654
-1033.6561 -8.8567276 25.594839 4284908399
-1031.3304 -8.7984638 25.646776 4284843119
-1028.8367 -8.695673 25.724552 4285039730
-1026.1853 -8.767292 25.883713 4284842606
-1023.7321 -8.7271061 25.842888 4284711535
-1021.3174 -8.6674232 26.005405 4284711534
-1018.6934 -8.7712154 25.712984 4284711790
-1016.1722 -8.8701649 25.613998 4284777328
-1013.7725 -8.670372 25.343052 4284842607
-1011.3463 -8.4204597 25.408234 4284777330
-1008.952 -8.241046 25.512842 4284842347
-1006.1369 -8.504446 25.594671 4284382313
-1003.701 -8.6728306 25.516619 4284184166
-1001.3182 -8.7087479 25.393061 4283855457
-998.76001 -8.6794786 25.761093 4283525973
-997.15747 -8.7378654 25.460106 4283064658
-1036.0378 -6.3009963 25.291492 4284777326
-1033.7739 -6.2243652 25.38637 4284842865
-1031.3608 -6.1063766 25.488302 4284777073
-1028.7113 -6.2318902 25.468712 4284842864
-1026.157 -6.1803198 25.411945 4284843121
-1023.7701 -6.3042502 25.549294 4284843122
-1021.3008 -6.2553248 25.851173 4284974451
-1018.7786 -6.2622986 26.019987 4284908398
-1016.1495 -6.3307538 26.212936 4284711534
-1013.7438 -6.2706447 26.142717 4284842861
-1011.3058 -6.2187948 26.330832 4284842863
-1008.7349 -6.189105 26.501169 4284711276
-1006.1797 -6.306613 26.35973 4284382826
-1003.7591 -6.3175879 26.155678 4284316007
-1001.3341 -6.3196306 26.008358 4283986785
-998.81641 -6.2483501 25.985022 4283657563
-996.88812 -6.1086717 26.03614 4282933581
-1035.98 -4.0764041 25.316116 4284646258
-1033.7975 -3.8302355 25.483624 4285039730
-1031.2241 -3.7939687 25.574242 4284843120
-1028.6556 -3.6699748 25.665895 4284908400
-1026.2346 -3.5486715 25.818897 4284843120
-1023.8202 -3.6745882 25.890697 4284908657
-1021.3382 -3.6068356 25.960047 4284908401
-1018.6734 -3.719496 26.14785 4284843377
-1016.2207 -3.7534235 26.073334 4284843121
-1013.848 -3.7873316 26.088655 4284974448
-1011.2526 -3.7827756 25.982626 4284908401
-1008.6465 -3.7856233 26.175411 4284711789
-1006.2328 -3.7442591 26.299498 4284645482
-1003.8281 -3.7016346 26.552774 4284447336
-1001.235 -3.5262182 26.542595 4283987299
-998.84137 -3.718338 26.676426 4283723870
-996.94 -4.0781841 27.015553 4283065679
-1036.4402 -0.48603058 25.03241 4284580977
-1033.2104 -2.439769 25.107727 4285236600
-1031.1453 -2.3880048 25.036282 4285039985
-1028.1949 -2.3195171 25.30838 4284843116
-1026.0505 -2.1108024 25.324135 4285039214
-1023.622 -1.9573503 25.357033 4284974190
-1020.8652 -1.4700055 25.333996 4284908914
-1018.7866 -1.4259925 25.506418 4284842865
-1016.2579 -1.2134795 25.727365 4284777587
-1013.7179 -1.1881938 25.682325 4284908403
-1011.2015 -1.3006481 25.957569 4284843377
-1008.7072 -1.3331127 26.033312 4284843377
-1006.3013 -1.2589833 25.994938 4284908656
-1003.8124 -1.1789393 26.05814 4284448619
-1001.2156 -1.3259325 26.221136 4284118883
-998.71234 -1.3718709 26.065029 4283724898
-997.34613 -1.2275925 26.311533 4283854946
-1036.496 0.5317241 25.013306 4284777074
-1025.5436 1.7072377 25.154388 4284908911
-1023.6513 1.7551397 25.088945 4284908659
-1021.3538 1.5604964 25.045704 4284843377
-1018.7914 2.2615662 25.098282 4285105261
-1016.2289 0.97714216 25.037327 4284843376
-1013.3187 1.1641684 25.415943 4285039729
-1011.0038 1.3076007 25.506514 4284909166
-1008.5422 0.99864787 25.624063 4284909169
-1006.2347 1.1928214 25.966543 4284974707
-1003.6971 1.2168883 26.120596 4284646253
-1001.191 1.2050923 26.287214 4284382822
-998.81903 1.1981442 26.408335 4284118884
-997.27631 1.3595276 26.636208 4283986786
-1025.5747 2.9113235 25.128326 4284974446
-1023.663 3.3325043 25.058844 4284843119
-1021.1052 3.4462647 25.099901 4284974450
-1018.786 3.7981498 25.131805 4284843120
-1016.0659 3.5321279 25.431833 4284908654
-1013.6753 3.7110267 25.57305 4284843376
-1011.2635 3.7688255 25.615685 4284974704
-1008.8419 3.9047437 25.59292 4284974449
-1006.2349 3.7573972 25.661613 4284909426
-1003.7175 3.741544 25.670845 4284843633
-1001.2769 3.6756656 25.611675 4284383083
-998.76904 3.7414157 26.014923 4283923045
-997.27545 3.5606952 26.146244 4283987296
-1015.6207 5.1305161 25.280701 4284777835
-1013.9137 5.1492572 25.278166 4284908917
-1010.9959 5.5927362 25.331507 4284974956
-1008.636 5.8831224 25.393805 4284974960
-1006.1047 5.8972397 25.440233 4285106034
-1003.6254 6.0743837 25.402754 4284975218
-1001.348 6.1412506 25.351089 4284712814
-998.77502 5.8465295 25.366161 4284251238
-997.20911 5.8349824 25.382374 4283922271
-1036.2711 9.0980272 25.353405 4284712303
-1033.8243 8.9554434 25.440516 4284777586
-1031.2731 9.0651588 25.312868 4284974194
-1028.6384 9.089365 25.277662 4284843376
-1026.4415 9.1633911 25.147093 4284974705
-1024.6204 9.7369385 25.141525 4284908906
-1021.5713 9.2349939 25.048166 4285105525
-1002.9457 7.7650909 25.144196 4285107058
-1000.7301 8.5428905 25.052546 4285040753
-997.61584 8.6670504 25.655718 4283988838
-997.13934 8.9560022 25.73344 4284119653
-1036.1479 11.255174 25.647234 4284843375
-1033.8805 11.373475 25.894918 4284974449
-1031.1924 11.215313 25.801483 4284908657
-1028.6635 11.22896 25.843821 4284843378
-1026.2554 11.268134 25.784967 4284777842
-1023.9902 11.605468 25.79348 4284908912
-1021.2767 11.729002 25.501011 4284974451
-1018.7134 11.235762 25.47842 4284908913
-1016.7955 11.032627 25.378632 4285040245
-1012.7711 11.913356 25.691675 4284843381
-1011.2567 11.834356 25.539785 4284909171
-1008.7204 11.906798 25.711628 4284844145
-1006.3132 11.776033 25.851339 4285040755
-1003.8934 11.789331 25.838856 4285171829
-1001.8241 12.169632 25.887817 4285237621
-997.98267 11.58678 25.445871 4284646505
-997.3504 11.33438 25.291138 4284383591
-1036.056 12.879959 25.348873 4284842862
-1033.6847 13.02687 25.411678 4284843377
-1031.2319 13.293164 25.453938 4284712560
-1028.8274 13.389572 25.603306 4284974449
-1026.2863 13.708601 25.700153 4284843376
-1023.7669 13.803321 25.832394 4284712304
-1021.1987 13.774659 25.773499 4284843376
-1018.7422 13.729602 25.658335 4284908913
-1016.3714 13.746496 25.50182 4284974707
-1013.8394 13.255812 25.307373 4285105778
-1011.0247 13.40834 25.370983 4284843635
-1008.7619 13.225883 25.492609 4284975216
-1006.3042 13.285088 25.627167 4284975219
-1003.6567 13.497161 25.68667 4285041010
-1001.1565 13.672028 25.739901 4285107317
-998.69781 13.758686 25.352318 4284975986
-997.12238 14.050522 25.843372 4284909428
-1031.4047 16.93881 25.037842 4284777587
-1025.2396 16.18338 25.056919 4285040243
-1023.8346 15.254285 25.265284 4284712297
-1021.069 15.307419 25.250183 4285039985
-1018.8093 15.865671 25.398737 4284974963
-1016.1959 16.292007 25.569368 4284909426
-1013.668 16.240578 25.532707 4285040243
-1011.3718 16.271563 25.599714 4285106033
-1008.8182 17.019846 26.089167 4285105776
-1006.2216 16.947309 25.520166 4285106293
-1003.7451 16.92128 25.33116 4285040500
-1001.2474 16.303799 25.395292 4285106806
-998.65155 16.068903 25.273584 4285107572
-997.07526 16.196287 25.430298 4285436026
-1031.7303 18.333345 25.027006 4284777586
-1028.2112 18.852638 25.076286 4284777848
-1021.0551 19.528488 25.373657 4285106037
-1018.0432 19.601381 25.341812 4284910192
-1016.6309 18.706213 25.295858 4284843891
-1013.6237 18.311886 25.148155 4285040752
-1011.2254 18.67721 25.307547 4284974962
-1008.7849 18.657608 25.857634 4284909426
-1006.4278 18.624277 25.711359 4284909682
-1003.7198 18.793238 25.635483 4285106547
-1001.3973 18.839853 25.398758 4285107059
-998.67029 19.122379 25.186075 4285238645
-996.50098 18.957676 25.273046 4285765244
-1028.2423 20.056726 25.05245 4284712824
-1021.0815 20.560625 25.35323 4284975220
-1017.9075 20.982162 25.296801 4284581746
-1016.3547 20.996332 25.255529 4284843891
-1013.7609 21.2334 25.233414 4285040756
-1011.337 21.364582 25.30155 4284974964
-1008.6594 21.338903 25.344107 4285041011
-1006.3152 21.380632 25.330971 4285041014
-1003.8095 21.175531 25.386887 4285172598
-1001.2937 21.325199 25.684692 4285172596
-998.72101 21.302889 25.453218 4285370487
-996.61102 21.290827 25.277617 4285764987
-1030.0686 24.143932 25.030262 4285106296
-1029.7247 24.152569 25.01836 4285106286
-1020.7628 24.86935 25.253296 4284778612
-1019.2209 24.911283 25.11058 4284975221
-1013.3101 22.648584 25.045181 4285237620
-1010.9017 23.043137 25.192753 4284975476
-1008.9724 23.159567 25.230413 4285237875
-1006.1312 22.978714 25.319946 4285106806
-1003.8006 23.123644 25.228806 4285237882
-1001.2877 23.508478 25.276684 4285304183
-998.66534 23.452576 25.160784 4285304956
-996.91211 23.366838 25.154869 4285699453
-1020.7894 25.901646 25.232878 4284844402
-1018.6831 26.252489 25.296368 4284910452
-1016.4432 26.58744 25.202793 4284975731
-1013.7487 26.755396 25.2085 4285041527
-1011.123 26.625418 25.227446 4285041523
-1008.7059 26.621328 25.310369 4285172854
-1006.0833 27.047607 25.239645 4285303667
-1003.5693 26.718788 25.332647 4285369716
-1001.8686 26.618977 25.159994 4285041784
-997.7616 27.475082 25.136536 4285502599
-997.04333 26.600504 25.404667 4285633663
-1018.0891 27.824579 25.068106 4284976243
-1016.288 27.847502 25.108162 4284975992
-1013.4135 28.017042 25.155823 4284975990
-1011.2676 28.023258 25.251295 4285238388
-1008.9301 28.09376 25.296787 4285238648
-1006.3352 28.044315 25.180336 4285107321
-1003.5317 28.038456 25.233793 4285238903
-1002.0359 28.161535 25.173538 4285239413
-998.35236 28.026482 25.026398 4285371510
-996.93787 27.911875 25.430309 4285436796
-1001.8582 -4.4458733 27.674026 4284184164
-997.77045 -4.0749927 27.697947 4283066972
-997.05786 -4.2763443 27.580994 4283066195
-996.35211 2.8966522 28.508789 4283858291
-996.58752 11.420126 27.826 4284448610
-996.62939 13.162825 27.893967 4284711016
-996.31818 16.319014 29.486246 4285567612
-996.43066 -3.1830063 32.136616 4284182359
-996.27661 2.9567566 31.053406 4283989884
-996.27283 15.41202 30.240463 4284713074
-993.95898 19.819782 31.35553 4286487183
-996.4231 -2.1727562 33.213501 4284905053
-995.55225 5.8433399 34.892181 4285106029
-995.28644 8.7402353 34.838684 4285171829
-994.61206 9.0945292 34.9342 4285040242
-995.31775 10.09713 34.937561 4284451955
-995.97113 14.528849 33.896469 4285236592
-994.59229 14.75786 34.661362 4285303677
-995.82117 15.705233 34.201271 4284975734
-994.24188 15.886364 34.630817 4285435258
-994.89246 19.976921 34.722473 4286684553
-995.4765 -0.81599367 36.203758 4285106035
-995.2973 1.2006629 36.371098 4284974709
-994.19751 1.2901678 36.613289 4284908657
-995.30872 3.835619 35.666172 4285040241
-994.2475 3.7901683 35.717167 4284909169
-995.20984 6.3500137 35.39782 4284974961
-994.18152 6.2369094 35.58374 4284843379
-993.95264 8.5648804 35.435043 4284974963
-995.39453 11.398617 35.765026 4285237363
-994.24744 11.169365 35.940159 4285106290
-995.28839 13.513358 35.658791 4285106549
-994.15375 13.566163 36.173588 4284974963
-995.2702 16.017168 35.404819 4285763450
-994.04364 16.419758 35.41581 4286159235
-995.15411 17.553902 35.333435 4288066218
-994.57025 17.941647 35.715019 4287935653
-993.06769 6.6227751 39.427441 4284974708
-993.14368 8.4633055 38.327019 4284974965
-992.99414 16.331226 38.680714 4285501302
-993.70831 18.337677 39.208996 4287869858
-963.44434 -1.7282028 42.046204 4285236081
-958.72919 -1.882309 42.406433 4285039474
-956.18701 -2.2204819 41.81131 4284645484
-954.24261 -2.2703269 42.111225 4284973167
-992.96814 4.5432148 41.179688 4284844658
-993.01208 5.442318 40.389771 4284974699
-992.73822 9.9675293 42.279846 4284909431
-992.78888 11.16468 41.50539 4284909431
-992.84985 13.752941 41.676361 4285041008
-992.7561 16.297832 41.27153 4285566836
-989.88757 17.483467 42.466614 4286881665
-980.7876 17.359814 41.998985 4286423442
-979.10413 17.394819 41.863354 4286293653
-976.67853 17.458071 41.804482 4286818716
-974.38849 17.497429 41.532288 4287475618
-967.97937 17.345783 41.579041 4287737747
-966.21094 17.339855 41.848953 4287671699
-963.93915 17.46487 41.625977 4287935392
-958.13562 17.181061 41.973492 4287409301
-956.87012 17.23386 42.296936 4287540370
-993.0199 18.521315 41.638279 4287738783
-990.63483 18.21027 42.206814 4287935903
-988.58508 18.126268 42.276207 4287672990
-986.15009 18.085535 41.775208 4287935131
-983.74866 18.165609 41.512615 4287935392
-981.22113 18.134241 41.488533 4288001185
-978.85132 18.240547 41.259781 4288001698
-976.20258 18.185987 41.408112 4288067491
-973.91217 18.198572 41.658047 4288133029
-971.26984 18.268379 41.733971 4288133031
-968.6723 18.085409 41.494102 4288199335
-966.26154 18.064379 41.348545 4288133543
-963.78424 18.101908 41.177998 4288199079
-961.67786 18.114792 42.163826 4288264102
-958.45135 17.944639 41.273121 4288133288
-956.88422 18.030411 41.841003 4287936422
-992.79974 -0.28529358 42.912079 4284776558
-991.72992 -0.51232147 44.947388 4284844154
-982.31238 -1.6718483 42.891632 4284711015
-971.05939 -1.5532119 44.688915 4284908651
-968.84094 -1.5741261 44.541424 4285367153
-966.32208 -1.5103312 44.458511 4285170798
-963.81927 -1.7336832 43.661839 4284973683
-960.99976 -1.6605034 43.864216 4284842864
-958.84424 -1.8011039 43.553558 4284973680
-956.23285 -1.8682389 44.248444 4284645227
-953.01093 -2.0090256 42.745117 4285104755
-952.20392 -1.8021889 44.18692 4285497965
-992.83978 1.2121648 42.829983 4284777835
-992.87732 3.3690109 43.461315 4284908658
-992.60742 6.3945041 43.815083 4284974703
-986.06903 7.0673704 44.936882 4284843376
-983.76392 7.2738051 44.905514 4285039726
-981.24133 7.3008823 44.905083 4284974707
-978.12769 6.7769294 44.939434 4285367919
-970.91162 7.072197 44.965534 4284974958
-963.5838 7.2494712 44.80727 4285106031
-958.32056 7.0962729 44.786865 4285171058
-992.66882 8.7510166 43.746338 4285040751
-991.4873 9.5966911 44.69281 4284844142
-986.56 7.862175 44.942169 4284646256
-982.86285 7.951004 44.984753 4285236339
-981.04865 7.9305053 44.872231 4285040500
-978.15753 7.9008102 44.825439 4284777324
-975.13507 7.9739404 44.766827 4285106031
-974.79938 7.9823709 44.755207 4285171830
-963.383 8.0878754 44.984863 4285236847
-957.67407 8.0636826 44.748245 4284974450
-989.49707 10.98204 44.977764 4285105779
-986.24988 11.467211 44.851692 4284909938
-984.46497 11.439678 44.967285 4285106555
-980.66522 11.396849 44.976574 4284974706
-978.97949 11.391395 44.906651 4285105523
-972.52997 11.22192 44.934357 4284581235
-972.19434 11.230343 44.922729 4284516473
-965.526 13.071648 44.954895 4285040755
-992.54327 16.324205 42.977642 4285434741
-991.29181 16.718534 44.296608 4285304184
-988.73187 16.867544 44.196629 4285173627
-986.31055 16.979708 44.09544 4285304957
-983.79034 17.232319 43.827374 4285634180
-981.33435 17.126455 43.718014 4285895549
-978.88159 17.110104 43.659744 4285895799
-976.21973 17.142355 43.508575 4286027646
-973.69812 17.211395 43.48196 4286422151
-971.25555 17.285528 43.41803 4286817165
-968.65204 17.17762 43.725647 4286226051
-966.08313 16.930851 43.943695 4285896573
-963.77368 17.017344 43.735382 4286290823
-961.2959 17.159975 43.676182 4286554766
-958.8006 16.875517 43.856709 4285896839
-956.20953 16.748178 43.901058 4285830528
-953.69238 16.81654 43.867729 4285699709
-952.07355 16.825346 44.045918 4286158974
-991.62872 18.120018 43.26358 4287278232
-988.70563 17.968166 43.110924 4287410072
-983.91852 18.009068 43.064331 4287738268
-977.91895 17.524326 42.764496 4287081117
-972.71594 18.183451 42.822006 4288264099
-971.03235 18.156315 42.743416 4288198822
-968.76837 18.016014 42.670261 4288199589
-962.60352 17.607315 42.615295 4287870375
-961.06061 17.929548 42.789536 4288001703
-959.78552 17.950825 42.548096 4288329893
-991.07184 -0.22249095 45.779346 4285106035
-988.67938 -0.2610746 46.24522 4284909429
-986.33051 -0.19483402 46.216648 4284974707
-983.81531 -0.13566589 46.099846 4284974192
-981.62964 -0.18347645 46.212334 4285039730
-979.95624 -0.016548157 46.132019 4285039213
-971.03571 -0.8398366 46.334599 4284777070
-968.77521 -0.81860763 46.192368 4284973682
-966.22198 -0.90736496 46.10704 4284973935
-963.75049 -0.64250755 45.977966 4284908914
-961.354 -0.71168625 46.026043 4284777586
-958.73737 -0.51611871 45.913555 4284843121
-956.22614 -0.56211537 45.772476 4284843123
-953.77295 -0.78642899 45.946522 4285039986
-952.12891 -0.70127797 45.877426 4285171570
-991.07782 1.3073325 46.217667 4284908655
-988.71875 1.2355117 46.463238 4284908402
-986.19659 1.1580969 46.234241 4284908657
-983.68103 1.2217239 46.150585 4284908660
-981.24335 1.3060076 46.185394 4284908400
-978.7312 1.2056072 46.41288 4284908658
-976.27771 1.286144 46.267899 4284973938
-973.77692 1.1986119 46.362267 4285039988
-971.28345 1.2690815 46.016487 4284974450
-968.73547 1.2383707 46.37278 4284974194
-966.24878 1.1350702 46.282623 4285039728
-963.73035 1.1715981 46.277981 4284908401
-961.2016 1.2086905 46.148792 4285039985
-958.7417 1.3703399 46.669537 4284974193
-956.29535 1.2249314 46.736233 4285105781
-953.78174 1.1593248 46.526184 4285039990
-951.98969 1.1563807 46.375763 4285039988
-991.10663 3.7952151 46.080376 4284974704
-988.78809 3.7636373 46.530582 4284908914
-986.25232 3.7538614 46.761848 4284843122
-983.73834 3.8168178 46.678806 4284974451
-981.21924 3.7767003 46.567719 4284974192
-978.70465 3.8155801 46.788704 4284843123
-976.21185 3.8918934 46.857235 4284843380
-973.71857 3.727783 46.722111 4284974194
-971.29529 3.8004801 46.681839 4284974450
-968.85748 3.6877375 46.883282 4285039730
-966.17706 3.7719266 46.941109 4284974193
-963.69385 3.7934287 46.900585 4285039988
-961.27637 3.8262277 46.876869 4285039984
-958.74683 3.9806857 47.113018 4285039987
-956.17456 3.8025653 47.226959 4284777842
-953.76172 3.809195 47.09576 4285171315
-951.91016 3.7931221 47.316975 4285040240
-991.2522 6.1828184 45.229263 4285040499
-988.73462 6.2228742 45.363689 4285039985
-986.26422 5.9911613 45.469334 4284908913
-983.78302 6.1077933 45.338524 4284843377
-981.28784 6.0591321 45.80106 4285105779
-978.81293 6.1858845 45.871944 4285039985
-976.25983 6.3521137 46.059753 4284974449
-973.76752 6.3493233 46.130722 4285039984
-971.21143 6.1338406 46.392273 4285040242
-968.70868 6.2390871 46.582066 4285039985
-966.2204 6.261323 46.118938 4285039985
-963.70697 6.2144156 45.863743 4284974964
-961.24249 6.2777195 45.595829 4285040244
-958.79309 6.1230054 45.626705 4284909170
-956.31525 6.2933087 46.287106 4285039986
-953.79523 6.3028936 46.185135 4285105780
-951.93713 6.2420902 46.23724 4285236595
-991.27631 8.6997919 45.502701 4285040242
-988.77722 8.8259745 45.687988 4285171313
-986.23688 8.8475943 45.566387 4284843630
-983.82288 8.9962234 45.470898 4284974450
-981.2616 9.0542803 45.54599 4285105779
-978.77893 8.7907162 45.447166 4285040241
-976.30164 8.7672482 45.563309 4284974961
-973.71777 8.8398533 45.724842 4284974962
-971.28949 8.7597055 45.693687 4284909170
-968.79462 8.8765736 46.177914 4285040241
-966.24878 8.7616415 46.016651 4285039986
-963.76666 8.8684473 45.798286 4285040499
-961.27722 8.8941574 46.300377 4285040498
-958.81641 8.6732559 45.566204 4285040243
-956.21924 8.7393179 45.799793 4285105781
-953.7113 8.7597389 45.787853 4285040500
-952.02258 8.7167273 45.781517 4285236851
-991.15753 11.259838 45.607075 4284974966
-988.68298 11.254722 45.581192 4284974706
-986.31299 11.059278 45.425556 4285040499
-983.75403 11.248542 45.509964 4284974709
-981.28662 11.259105 45.68145 4285040243
-978.65729 11.068852 45.463657 4285040243
-976.22186 11.284934 45.619358 4284975221
-973.78076 11.24132 45.656437 4285106034
-971.14362 11.262498 45.583199 4285040498
-968.74426 11.332096 45.535072 4285040757
-966.26154 11.191949 45.653835 4285040756
-963.83569 11.240609 45.605427 4285106295
-961.29364 11.286423 45.944492 4285106294
-958.7608 11.20718 46.050365 4285041013
-956.26379 11.252748 45.830715 4285040755
-953.78809 11.249207 45.80267 4285040756
-952.06091 11.235867 45.849365 4285106288
-991.07776 13.836238 45.980831 4284975219
-988.67328 13.775068 45.938602 4284909683
-986.24658 13.762585 45.829746 4285171826
-983.73578 13.735924 45.935226 4285172084
-981.32422 13.7405 45.911324 4284975220
-978.79895 13.673213 46.104935 4285106290
-976.28516 13.794739 45.769321 4285106293
-973.76453 13.750119 46.291531 4284975476
-971.24762 13.681502 46.194534 4285041013
-968.73523 13.76429 46.268215 4285106547
-966.2356 13.833382 46.16264 4285106548
-963.70679 13.747561 46.274216 4285172341
-961.19989 13.715714 46.38142 4285237621
-958.74915 13.771901 46.390293 4285041270
-956.24646 13.756674 46.320518 4285107063
-953.75909 13.785762 46.125446 4285172086
-951.99274 13.794273 45.808414 4285172083
-990.86652 15.663727 45.561535 4285107065
-988.79803 15.784583 45.560684 4285172341
-986.2157 15.944176 45.56781 4285172089
-983.73175 16.089283 45.662872 4285106805
-981.19482 15.948749 45.719341 4285106806
-978.6543 15.978622 45.617893 4285107061
-976.25415 16.023167 45.579063 4285107057
-973.71075 15.957702 45.739811 4285041523
-971.30774 15.994599 45.811737 4285172599
-968.86578 15.979466 46.036259 4285238646
-966.24542 15.852708 46.361271 4285172855
-963.76453 15.901561 46.548904 4285173110
-961.19073 16.045187 46.44083 4285304184
-958.76526 15.83021 46.699005 4285107061
-956.22791 15.853612 46.572536 4285238390
-953.71454 15.902403 46.364716 4285238133
-951.92175 15.906214 46.210148 4285172343
-977.28833 1.2746582 47.841125 4284908402
-967.86084 3.6203651 47.634693 4285039212
-967.30176 3.5783157 47.639343 4285170804
-964.9552 3.4695129 47.5616 4285105267
-959.04663 3.5547147 47.711887 4285171826
-956.27185 3.6698182 47.621582 4285039988
-953.71533 3.5945885 47.53933 4285171060
-956.13257 5.1903992 47.578796 4284843382
-962.92206 15.397244 47.598572 4285106804
-962.08588 15.418034 47.56958 4285434997
