# .PCD v0.7 - Point Cloud Data file format
VERSION 0.7
FIELDS x y z rgba
SIZE 4 4 4 4
TYPE F F F U
COUNT 1 1 1 1
WIDTH 720
HEIGHT 1
VIEWPOINT 0 0 0 1 0 0 0
POINTS 720
DATA ascii
-1019.2786 28.630356 59.488884 4281412373
-1018.7123 27.291656 62.308472 4281411869
-1013.5851 27.000984 61.98114 4281543211
-1011.3034 26.948473 61.714211 4281804835
-1009.386 26.759064 61.187344 4281542695
-1021.0958 28.038086 61.20628 4281871386
-1019.329 28.007101 60.987442 4281673754
-1058.4333 -6.1940684 64.14859 4282532677
-1058.1263 -3.8713624 64.284599 4282663236
-1057.3385 -3.5430584 63.980743 4282926152
-1057.8035 -2.0777512 64.618164 4282532675
-1057.4087 -1.9819889 64.461624 4282860358
-1010.6291 -1.0854568 64.668365 4280885772
-1010.9809 1.4586056 64.888847 4280951567
-1057.7601 4.6667671 64.986572 4282271549
-1056.9314 3.9435928 64.844078 4282663748
-1010.7161 2.9637222 64.948555 4280821013
-1057.6569 6.2845993 64.759422 4282729021
-1056.9086 6.3608479 64.767662 4282598210
-1010.1578 6.8133278 64.854034 4279968512
-1009.8378 7.1504898 64.836121 4280427539
-1057.7428 7.8114166 64.279114 4282793795
-1056.6721 8.7708378 64.118446 4282795074
-1010.2037 8.7824917 64.916794 4280819462
-1009.7712 9.0132513 64.903893 4281081863
-1056.6716 10.979046 64.338783 4282467142
-1010.3721 11.441985 64.842331 4281147913
-1009.8203 11.258763 64.835205 4281279247
-1056.3361 14.301803 64.670959 4282794564
-1010.3646 13.77279 64.443222 4280493076
-1009.6682 13.817725 64.327507 4280361234
-1056.0754 16.218254 64.185226 4282466882
-1054.9221 17.241112 64.971375 4282532927
-1010.2491 16.335413 64.447556 4281083159
-1009.5161 16.376274 64.102127 4280229898
-1055.8693 18.75832 63.991592 4282336322
-1054.8843 18.632132 64.57827 4282270271
-1009.5612 17.73513 64.646057 4280689422
-1055.7654 21.083887 63.124832 4282532675
-1054.7815 20.741455 63.903759 4283056964
-1008.8787 21.466675 64.802429 4279248419
-1055.7365 23.618401 63.126202 4282401603
-1054.7297 23.892365 63.515934 4283188034
-1008.9383 23.639666 64.682739 4281215525
-1055.4528 25.87932 63.610043 4283123529
-1054.674 26.128824 63.616211 4283059018
-1021.2652 27.359537 63.82481 4281151525
-1019.4884 27.350689 63.191803 4281413925
-1015.3327 27.016701 63.635254 4281347362
-1013.3652 26.65093 63.25182 4281674012
-1011.0477 26.410122 63.700371 4281740060
-1009.1946 25.895844 63.907738 4281804830
-1021.9326 27.697714 62.93108 4282265376
-1057.5387 -8.8414154 65.62262 4282926660
-1057.3955 -9.1936932 66.284744 4282926148
-1012.7802 -9.0098848 66.428452 4280691491
-1011.974 -8.7068233 66.065041 4280361231
-1012.762 -5.9179935 65.712418 4281544233
-1011.9019 -6.2150421 65.8116 4280886033
-1058.4541 -2.7313538 65.205124 4282794042
-1012.5146 -3.2234142 65.41935 4281217588
-1011.5944 -3.7631814 65.57029 4281082637
-1058.0867 -1.2181849 65.456375 4282335553
-1057.1799 -0.60995007 66.192101 4282860607
-1012.5225 -2.3033562 65.713989 4281940273
-1011.546 -1.3598902 65.384392 4280821011
-1057.9733 1.1974311 65.322922 4282794307
-1057.1787 1.4782791 65.757759 4282729280
-1011.4411 1.0923066 65.225471 4281149210
-1057.7435 3.4773777 65.406219 4282532928
-1056.9508 3.034548 65.364075 4282401858
-1011.0924 3.9438217 65.445801 4280886294
-1056.2678 5.6822295 65.275757 4282597957
-1010.9211 6.2843604 65.60096 4280493595
-1055.6272 7.9200325 65.604675 4282925376
-1010.8406 8.5769329 65.594063 4280559125
-1056.0103 11.863054 65.193489 4282598219
-1010.7655 11.01593 65.446243 4281148445
-1056.0291 13.547664 65.201088 4282860358
-1010.9509 13.022469 65.259827 4281414708
-1054.7128 16.026396 66.227356 4282467134
-1054.4814 18.566505 66.396584 4282664000
-1010.0929 18.94302 65.639832 4281216286
-1009.3942 19.110287 65.551712 4281016344
-1054.1561 20.803562 66.889862 4283123018
-1010.125 20.416389 65.736481 4281938476
-1009.3461 21.274881 65.658638 4280689947
-1053.9381 24.030355 66.539085 4282795076
-1010.2595 24.255882 66.994408 4282992193
-1009.3974 23.810852 65.28109 4281479463
-1053.5688 26.119476 67.44928 4283452241
-1013.8652 25.963654 66.016907 4281805343
-1010.4179 25.539368 65.710457 4281674782
-1009.4742 25.328959 65.185547 4281543456
-1057.0537 -10.992821 69.801392 4282794818
-1056.8538 -8.6476994 69.094925 4282860611
-1056.2214 -4.5696411 69.788879 4282860872
-1012.4077 -0.060684204 69.070496 4281547307
-1055.5699 4.8241348 68.695801 4282597955
-1055.6179 5.2701569 68.327179 4282598472
-1055.0227 9.4437943 68.688049 4282204984
-1054.957 9.1779709 69.276855 4282335805
-1011.5933 8.6003113 69.999023 4281874994
-1055.104 10.016006 68.016296 4282533442
-1054.6418 11.199593 69.621765 4282205247
-1011.3364 11.204929 69.880707 4282268215
-1054.4961 14.712323 68.630287 4282795589
-1054.22 16.372261 68.498154 4282729534
-1053.7787 21.118269 68.878403 4282729800
-1053.6151 23.534027 68.581444 4283058247
-1010.3552 23.503574 69.412941 4283123525
-1053.4749 25.796864 68.327011 4283255120
-1013.7681 25.637871 67.744751 4282266119
-1056.7949 -12.876216 71.862831 4282730055
-1013.9197 -14.211522 71.037819 4282203192
-1056.9257 -11.734738 70.865051 4282729030
-1013.6102 -11.046429 72.189651 4282399291
-1056.5967 -9.2994099 70.795883 4282401606
-1013.3553 -9.0953941 71.739288 4282268724
-1056.2673 -6.1738162 71.10215 4282729543
-1055.9146 -3.7598419 71.369141 4282795594
-1012.8326 -3.5274792 71.876053 4281940793
-1055.4164 -0.021354675 72.300964 4282007364
-1012.5768 -0.41698456 71.998375 4282072624
-1055.5397 0.55075073 71.223915 4282400836
-1012.3516 1.2997398 70.838089 4282137657
-1055.179 3.2836761 72.187012 4282598477
-1012.1055 4.3491745 70.733154 4282465071
-1011.8191 6.6056271 71.038208 4282465845
-1054.7753 8.7225237 70.974586 4282795591
-1011.564 9.3446627 70.96096 4282007093
-1054.5682 11.282745 70.375366 4282140480
-1011.2749 12.008713 71.53772 4282203189
-1054.0588 14.587605 71.335968 4282664773
-1011.298 13.476459 71.808632 4282531893
-1053.9446 15.3663 71.023293 4282795333
-1010.9238 16.196945 70.822449 4282596415
-1053.7048 18.867083 70.974136 4282730304
-1010.7586 17.89422 71.726013 4282597179
-1053.4796 21.045502 70.460411 4282205513
-1010.538 20.917503 71.084412 4282991170
-1053.1863 24.17284 70.865295 4282533191
-1010.3165 23.653297 70.305237 4283450953
-1052.8982 26.66144 71.065674 4283385939
-1034.8096 27.091156 72.136841 4284175442
-1015.2288 25.414131 71.005371 4284175442
-1052.9803 27.765732 70.494873 4283322706
-1022.0898 -20.026878 74.136353 4282730303
-1038.3474 -17.619247 73.631622 4283057975
-1036.3438 -17.971407 73.875465 4282992707
-1034.3003 -18.147873 74.385925 4282992975
-1031.0187 -18.367994 74.55896 4283057988
-1028.95 -18.893572 74.413841 4282992711
-1023.0433 -19.603476 74.689156 4282729787
-1022.0759 -19.568165 74.534714 4282730310
-1055.2621 -15.713924 73.365814 4283189314
-1054.5846 -15.443375 74.727844 4283123527
-1048.5088 -16.420448 74.241051 4283123277
-1045.2024 -16.797409 73.960327 4283123533
-1043.2094 -16.989136 74.53466 4282861384
-1041.3225 -17.175762 74.231018 4282861127
-1014.1008 -15.642093 73.107872 4282399802
-1013.9423 -13.853371 73.85083 4282400060
-1056.2467 -10.631709 74.506836 4282859842
-1056.0411 -8.1278944 73.908325 4282926402
-1013.2969 -8.0275316 73.363441 4282268987
-1055.7573 -6.21315 73.929306 4282794819
-1013.0127 -5.7387252 73.64592 4281874229
-1055.5067 -3.0530663 73.916077 4282663491
-1012.8051 -2.565918 72.873108 4281875510
-1055.2866 -0.68769836 73.417908 4282139975
-1012.8135 -2.2402496 72.866699 4282466357
-1054.8993 2.2881165 74.708618 4282401353
-1012.5004 0.51776886 73.944031 4282465588
-1012.2863 2.3318405 72.630371 4282267966
-1055.1053 3.0417175 72.855042 4282532937
-1054.9692 2.7085114 74.116852 4282401348
-1012.2213 3.4786816 72.864212 4282596406
-1054.3759 6.8513107 74.496704 4282597944
-1011.9998 5.6921439 73.493675 4282400059
-1054.1172 8.7930326 74.28019 4283058501
-1011.7668 8.3788042 72.96756 4282072628
-1011.3987 10.438347 74.84198 4282727991
-1053.6261 14.3367 73.974182 4282795845
-1011.2725 14.743469 72.966919 4282597942
-1053.4233 17.880342 73.575783 4282139205
-1010.6426 18.906776 74.641174 4282466882
-1053.2404 20.306467 72.704834 4282402116
-1052.8427 23.585033 73.551559 4282926666
-1052.4773 24.379875 74.803345 4282730315
-1016.0687 24.92098 74.546249 4284110682
-1052.5872 25.630337 73.987732 4283254345
-1042.5319 27.341072 73.675964 4284044372
-1041.0168 27.269577 74.197281 4283782741
-1038.9193 27.136572 73.874573 4283716439
-1036.2968 26.894228 73.95414 4284110167
-1034.8328 26.934841 73.912476 4284110164
-1022.9908 26.170914 72.65509 4283848528
-1020.9302 25.552956 74.095062 4283651417
-1020.7144 -20.14669 75.234924 4281483830
-1033.6176 -18.041307 75.518677 4282600521
-1030.7832 -18.043409 75.405342 4283123784
-1028.8048 -18.728298 75.430389 4283123524
-1026.1954 -19.075659 75.273949 4283057735
-1023.9592 -19.298094 75.753998 4282861374
-1020.7337 -19.501207 75.179108 4283123779
-1018.9658 -19.594818 76.216293 4283058248
-1016.2318 -19.663628 76.244698 4283058255
-1051.9266 -15.917892 76.159523 4283189321
-1046.4756 -16.513199 76.177612 4283387200
-1043.5813 -16.829529 75.644775 4283254343
-1041.5333 -16.909494 75.418884 4282730052
-1038.7273 -17.427353 75.017578 4282926659
-1014.0083 -14.326736 75.445618 4282465084
-1013.7484 -12.380348 75.117249 4282203965
-1055.6492 -8.4775543 76.275673 4282598469
-1013.4521 -9.3758593 75.974388 4282531134
-1055.3066 -6.1678629 76.344795 4282663998
-1013.2126 -6.8234963 75.542885 4282138940
-1055.2671 -4.5868492 75.902344 4282730310
-1054.6062 -0.082992554 77.040344 4282139203
-1054.7147 1.1656505 76.263496 4282400581
-1054.4958 3.7385101 75.809326 4282730572
-1054.3127 6.5959244 75.063782 4282467641
-1011.3912 10.766014 75.157349 4282728246
-1052.8978 19.328629 75.935883 4282860609
-1052.2484 24.194572 76.263107 4282533710
-1020.4296 24.84148 76.714844 4283847762
-1018.6095 24.703596 76.615097 4283782229
-1016.6482 24.564575 76.456757 4283847511
-1012.1506 24.064846 76.32016 4283781973
-1051.4702 26.782696 77.03083 4283320652
-1048.04 27.313879 76.782364 4283584596
-1046.62 27.282633 76.980156 4283519061
-1043.371 27.13658 76.928116 4283650387
-1041.5945 26.974972 76.655441 4283585108
-1037.9543 26.956217 77.106163 4283782231
-1036.2815 26.528969 76.662651 4283847252
-1033.5931 26.671143 76.631516 4283913300
-1031.2698 26.287271 76.929184 4283847766
-1028.8762 26.04583 76.989769 4283912788
-1023.0199 25.288139 77.020813 4283914066
-1021.0584 25.140223 77.178894 4283913812
-1048.0919 27.508156 77.148438 4283716695
-1045.9695 27.576366 77.255188 4283454549
-1043.571 27.60568 76.798569 4283782229
-1041.6256 27.655001 76.736916 4283978838
-1027.8954 -17.747433 78.210022 4282730311
-1026.7686 -17.723286 78.075966 4283124294
-1024.1237 -18.011858 78.683693 4283123779
-1021.8259 -18.086792 79.070923 4282468422
-1017.913 -18.273779 79.369484 4283254859
-1016.2397 -18.274364 79.412407 4282796364
-1014.9977 -18.178154 79.395111 4283057731
-1051.6532 -15.184288 78.56012 4283123788
-1048.1056 -15.315533 78.786499 4282664515
-1046.2104 -15.361906 79.119057 4283057991
-1043.9478 -15.354115 79.841515 4283057739
-1040.9259 -15.224788 79.796509 4282729796
-1038.564 -15.718804 79.705391 4282795332
-1036.434 -15.976464 79.766136 4282860872
-1033.6783 -16.341982 79.865532 4282861381
-1031.0028 -16.256636 79.868813 4283253831
-1028.5428 -16.92893 79.72702 4283189056
-1016.4725 -17.247953 79.502686 4282926660
-1053.4675 -13.448732 79.029373 4282730307
-1051.3132 -13.539551 79.043388 4282729797
-1048.6312 -13.578516 79.110023 4282729541
-1046.2183 -13.703157 79.253288 4282730056
-1043.8776 -13.719669 79.520111 4282664003
-1041.3074 -13.652805 79.675056 4282795332
-1038.6538 -13.876143 79.667702 4282795587
-1036.6531 -13.649697 79.810234 4282664519
-1032.9922 -13.316957 79.92749 4282664516
-1031.5481 -13.361236 79.930534 4282533191
-1027.7377 -12.883835 79.835777 4283123271
-1027.2531 -12.871741 79.819 4282796105
-1019.6387 -12.518524 79.969604 4283057734
-1055.2534 -11.414719 78.900276 4282664511
-1053.6873 -11.243013 79.226898 4282598723
-1051.2695 -11.237912 79.312881 4282533186
-1048.7864 -11.204043 79.214439 4282598211
-1046.125 -11.34101 79.563911 4282795076
-1043.7576 -11.346078 79.415779 4282729538
-1041.4585 -11.157451 79.672562 4282598723
-1038.5687 -11.14924 79.858696 4282729794
-1036.2839 -11.270879 79.841034 4282598467
-1033.776 -11.231173 79.791199 4282664260
-1031.2123 -11.176373 79.823799 4282533191
-1028.9681 -11.172584 79.831772 4282664006
-1026.2883 -11.204963 79.758186 4282860357
-1024.3977 -10.697403 79.697998 4282795076
-1018.6768 -12.171774 79.952133 4282468172
-1055.2207 -8.6277351 78.596436 4282467395
-1053.692 -8.6738663 79.232208 4282467140
-1051.2424 -8.7628603 79.33799 4282795074
-1048.7158 -8.7418604 79.372749 4282794820
-1046.1957 -8.6615686 79.434784 4282598466
-1043.7506 -8.5803881 79.360855 4282533189
-1041.3204 -8.7795277 79.42041 4282532931
-1038.7101 -8.7898779 79.701683 4282664004
-1036.1932 -8.6842003 79.698555 4282729537
-1033.851 -8.6688604 79.659317 4282598466
-1031.0105 -8.6687918 79.676254 4282664002
-1029.348 -8.7425671 79.771591 4282860865
-1013.9146 -8.6588335 79.820396 4282664516
-1055.0281 -6.4235001 77.812805 4282598728
-1053.7115 -6.2697554 78.907257 4282467395
-1051.1812 -6.3070416 78.898628 4282532930
-1048.7667 -6.2950773 78.900871 4282532676
-1046.3198 -6.2193975 78.781677 4282729283
-1043.7272 -6.1745119 78.922279 4282663747
-1041.174 -6.2385311 79.0811 4282532933
-1038.7655 -6.2461886 79.332085 4282598468
-1036.2449 -6.213016 79.396156 4282598467
-1033.7667 -6.238122 79.415695 4282729541
-1031.1727 -6.2673588 79.474609 4282664260
-1028.7922 -6.1463618 79.582314 4282926149
-1026.6469 -6.3434567 79.600876 4282729542
-1023.6712 -5.793241 79.710548 4282664517
-1021.4492 -5.8221354 79.912125 4282729537
-1018.5788 -5.2740021 79.920052 4282992202
-1013.981 -6.0207214 79.800026 4282598981
-1053.5437 -3.7659199 79.508095 4282794819
-1051.1759 -3.7674408 79.633171 4282401861
-1048.7418 -3.8052475 79.338707 4282532672
-1046.3298 -3.8479724 79.330246 4282401860
-1043.7408 -3.7626548 79.388924 4282467396
-1041.1991 -3.803211 79.211411 4282598466
-1038.7841 -3.6915574 79.569534 4282532679
-1036.2482 -3.7532625 79.335014 4282664261
-1033.7577 -3.7599633 79.347733 4282532930
-1031.2727 -3.8288958 79.549263 4282664004
-1028.7319 -3.745291 79.590485 4282794823
-1026.9452 -3.5078785 79.611641 4282664005
-1024.0336 -3.5987604 79.787216 4282336830
-1020.8285 -3.7139618 79.939209 4282598467
-1018.5618 -3.8644943 79.882156 4282795849
-1015.1971 -2.7109222 79.773071 4282926403
-1013.4068 -3.3114853 79.681984 4282730307
-1053.5704 -1.2268938 79.142258 4282467140
-1051.1724 -1.3328191 79.414116 4282467138
-1048.6951 -1.3174654 79.347145 4282336071
-1046.2397 -1.2798651 79.451599 4282532675
-1043.901 -1.0999048 79.617241 4282663493
-1041.2205 -1.2281513 79.543167 4282598470
-1038.7515 -1.3387595 79.896317 4282664005
-1036.2522 -1.3711939 79.731804 4282664002
-1033.8682 -1.3481885 79.63765 4282532679
-1030.8254 -1.0413284 79.672874 4282730053
-1028.8098 -1.3032876 79.4207 4282598725
-1026.2556 -1.2102458 79.530006 4282795330
-1023.8807 -1.1041909 79.662285 4282467140
-1021.1132 -1.2075534 79.869881 4282729799
-1018.8857 -1.0107902 79.823212 4282730053
-1016.1049 -1.118284 79.604408 4282795335
-1014.3074 -0.42693764 79.742546 4282795845
-1053.3573 1.1905226 79.479141 4282598210
-1051.285 1.2487024 79.43679 4282532928
-1048.7096 1.2863425 79.462425 4282532677
-1046.1621 1.3709632 79.560944 4282729287
-1043.8741 1.2393812 79.611763 4282598210
-1041.0835 1.2000523 79.687714 4282467395
-1038.746 1.2709423 79.700996 4282663747
-1036.1337 1.2704632 79.725906 4282466885
-1033.8529 1.2144462 79.708618 4282532675
-1031.5292 1.1508921 79.665863 4282532929
-1028.3685 1.1055608 79.608971 4282532933
-1026.703 1.0938411 79.749092 4282729539
-1023.803 1.2138305 79.926338 4282598976
-1022.0655 0.51027012 79.940598 4282795078
-1019.5 0.36670685 79.856102 4282795336
-1015.864 0.6941613 79.643768 4282665028
-1014.0425 1.2117363 79.627289 4282795334
-1053.2129 3.7915661 79.678116 4282598208
-1051.3362 3.7604666 79.526222 4282663748
-1048.8309 3.709276 79.047523 4282598211
-1046.219 3.7328238 79.192764 4282729539
-1043.8085 3.6346152 79.371971 4282663493
-1041.3165 3.74786 79.311058 4282336324
-1038.7439 3.8653896 79.416328 4282598469
-1036.2823 3.726371 79.369148 4282598212
-1034.9166 4.055253 79.753471 4282860100
-1031.2067 3.9762814 79.679588 4282598467
-1028.0853 4.0318799 79.608681 4282861127
-1026.0914 3.9543397 79.848763 4282402119
-1023.9885 3.8327706 79.811211 4282860613
-1022.1832 4.1783423 79.868782 4282468425
-1018.2217 4.3435292 79.711784 4282926919
-1017.1497 4.0882392 79.699081 4283057223
-1012.8951 2.6743851 79.92395 4282139713
-1053.0037 6.1928034 79.211235 4282466885
-1051.1808 6.3403783 79.149521 4282664005
-1048.7349 6.1644731 79.204361 4282532932
-1046.2792 6.1887207 78.925911 4282729543
-1043.6852 6.1878958 78.880081 4282598470
-1041.2673 6.2365274 78.691917 4282664259
-1038.8394 6.3097563 78.844315 4282664005
-1036.1836 6.173028 79.067001 4282664001
-1033.7491 6.2260399 79.356941 4282598470
-1031.3159 6.2878895 79.396553 4282729542
-1028.7256 6.3928604 79.428436 4282795335
-1026.266 6.2012415 79.481842 4282664007
-1023.8028 6.262207 79.574257 4282598724
-1021.4827 6.4394689 79.555611 4282664519
-1018.5627 6.3478456 79.535835 4282795337
-1016.2248 6.5856824 79.807335 4282664007
-1014.2938 6.6778517 79.825363 4282729800
-1052.856 8.8390236 79.30751 4282532161
-1051.1492 8.8013716 79.381721 4282532675
-1048.7368 8.7555876 79.410034 4282467396
-1046.3258 8.7362347 79.084457 4282729798
-1043.7557 8.7940226 78.994202 4282598214
-1041.3018 8.7199011 78.918152 4282663749
-1038.8088 8.8160391 79.233528 4282598724
-1036.2996 8.7499733 78.907845 4282795335
-1033.6748 8.8101826 79.030731 4282730053
-1031.277 8.7853527 79.060432 4282730053
-1028.8008 8.76824 79.147888 4282991687
-1026.1986 8.6918726 79.249779 4282795589
-1023.7382 8.7644968 79.449371 4282598725
-1021.3326 8.8302488 79.393303 4282860870
-1018.7331 8.7139702 79.572235 4282926659
-1016.2012 8.749711 79.453224 4282795593
-1013.7604 8.8387966 79.722878 4282729800
-1012.2643 8.9056807 79.672684 4282663748
-1052.7263 11.267915 79.01516 4282664511
-1051.203 11.275916 79.649582 4282664004
-1048.7179 11.365508 79.736168 4282336324
-1046.3096 11.200438 79.44706 4282664261
-1043.7635 11.242104 79.144272 4282533190
-1041.3069 11.176086 79.479805 4282598726
-1038.8137 10.763918 79.514252 4282729541
-1036.3826 11.094585 79.233482 4282664520
-1033.7205 10.914553 79.105019 4282795334
-1031.0138 11.085784 78.986801 4282730048
-1028.7499 11.164853 78.723717 4282598980
-1026.3142 11.247754 78.731644 4282729796
-1023.6799 11.274165 78.796211 4282467653
-1021.2629 11.250492 78.752357 4282730052
-1018.8105 11.185175 79.202347 4282664517
-1016.2351 11.209606 78.93325 4282598982
-1013.7116 11.248325 79.257523 4282664772
-1012.0727 11.360635 79.254059 4282992449
-1051.2703 13.750875 79.678009 4282664004
-1048.625 13.772091 79.688774 4282598724
-1046.2559 13.590704 79.755943 4282598725
-1043.8656 13.690894 79.512634 4282598466
-1041.421 13.827703 79.533707 4282664005
-1039.2146 14.421724 79.643135 4282795075
-1036.7278 13.340259 79.572388 4282730053
-1030.4884 13.527415 79.642036 4282598980
-1028.7874 13.683471 79.760284 4282926916
-1026.4114 13.628026 79.08886 4282861122
-1023.6458 13.601426 79.244888 4282533446
-1021.2623 13.727961 79.29248 4282795594
-1018.8773 13.719854 79.517525 4282795592
-1016.2457 13.705815 79.482742 4282861130
-1013.6556 13.623283 79.490685 4282664773
-1011.913 13.603456 79.106888 4282664517
-1051.0924 16.251932 79.266441 4282795076
-1048.7511 16.206205 79.366371 4282664260
-1046.2361 16.374525 79.421661 4282729798
-1043.8827 16.31167 79.166862 4282795332
-1041.3038 16.242519 79.421021 4282992195
-1038.866 16.398409 79.376038 4282860870
-1036.2643 16.428177 79.749672 4282795335
-1033.7157 16.377399 79.58638 4283057732
-1031.4417 16.483759 79.742424 4282861382
-1028.9966 16.252586 79.694077 4282926917
-1026.556 16.121506 79.730217 4282927175
-1023.5676 16.240852 79.621147 4282664776
-1021.25 16.332964 79.672173 4282861129
-1018.8867 16.367565 79.530762 4282927176
-1016.1721 16.180712 79.770905 4282927433
-1013.7291 16.296144 79.706627 4282861639
-1011.9254 16.672939 79.573685 4282861126
-1051.1512 18.763577 78.678383 4282730053
-1048.839 18.754404 79.081169 4282729798
-1046.2567 18.806032 79.160019 4282795338
-1043.7671 18.799746 78.938187 4282730054
-1041.291 18.649029 79.05014 4282992456
-1038.772 18.715319 79.141106 4282861127
-1036.1742 18.783201 79.426079 4282795846
-1033.7644 18.811466 79.213226 4282926918
-1031.309 18.726543 79.305847 4282992454
-1028.6676 18.74531 79.446678 4282796106
-1026.5763 18.783762 79.359467 4282992455
-1023.4227 18.785517 79.829575 4282795844
-1020.851 18.269703 79.903587 4282927174
-1018.8804 18.50086 79.828072 4283058248
-1016.3199 18.600214 79.82711 4283058505
-1013.6552 18.489012 79.737251 4282992713
-1011.7834 18.828659 79.532646 4282927177
-1050.7733 21.230997 79.072975 4282664005
-1048.7994 21.22607 78.796516 4282795335
-1046.298 21.277946 78.735626 4282861129
-1043.778 21.171835 78.432983 4282861127
-1041.2562 21.211201 78.527405 4282861128
-1038.7986 21.251558 78.884804 4282796103
-1036.2825 21.285795 79.076042 4282926921
-1033.7059 21.300516 78.899765 4282927432
-1031.2435 21.168165 79.081123 4283058248
-1028.7817 21.235689 79.132011 4282993227
-1026.1898 21.342365 79.281555 4283123786
-1023.7529 21.255466 79.4076 4282927431
-1021.2212 21.405054 79.624504 4282861896
-1018.7651 21.402891 79.736076 4283189834
-1016.2343 21.411118 79.443054 4283255372
-1013.7376 21.416023 79.422897 4283124040
-1011.6367 21.338125 79.603706 4282861639
-1050.8807 23.831894 78.5681 4282730313
-1048.7167 23.752563 78.660362 4282730310
-1046.3024 23.729668 78.751701 4282927687
-1043.7385 23.78968 78.944305 4282926920
-1041.205 23.774134 79.040253 4282992968
-1038.7426 23.749823 79.160683 4282796108
-1036.2699 23.700819 79.019119 4283124040
-1033.6941 23.738596 79.28154 4282992972
-1031.2513 23.806215 79.149673 4283189838
-1028.8367 23.820442 78.993271 4283386701
-1026.2542 23.769962 79.421326 4283124299
-1023.7122 23.761715 78.84053 4283190605
-1021.1964 23.641434 78.828537 4283453003
-1018.83 23.52187 79.039413 4283452750
-1016.1071 23.56918 78.980186 4283649870
-1013.701 23.316864 79.012497 4283452752
-1011.7515 23.072746 79.123688 4283190604
-1050.8419 26.139835 78.372314 4283058251
-1048.7593 26.163084 78.390625 4283190090
-1046.2183 26.126442 78.490334 4283190347
-1043.9077 25.960217 78.799179 4283124299
-1041.2311 25.866247 78.814903 4283190348
-1038.578 25.780861 78.750809 4283321934
-1036.4036 25.445002 78.85125 4283321420
-1033.7245 25.710808 78.669518 4283584591
-1031.3049 25.538519 78.251793 4283585107
-1028.9712 25.292986 78.104431 4283584849
-1025.9244 25.222408 78.350243 4283781715
-1024.8702 25.045174 78.430969 4283192661
-1021.3381 25.085876 77.89032 4283586388
-1049.3135 27.556614 78.005226 4283190862
-1045.9243 27.631914 77.769424 4283584850
-1044.7822 27.668839 77.82959 4283782222
-1025.3263 -17.528809 80.26992 4282664779
-1023.6652 -17.77154 80.197052 4282992961
-1021.131 -17.791887 80.675095 4282861639
-1019.0423 -17.938271 80.849777 4282926408
-1045.1497 -15.724319 80.208313 4283254604
-1043.5145 -15.565228 80.153305 4282991944
-1041.3328 -15.567705 80.076241 4282730055
-1039.7596 -15.696786 80.023682 4282860873
-1036.0195 -15.748065 80.100479 4283123014
-1033.6482 -15.751736 80.311523 4282926660
-1031.2791 -15.873424 80.466827 4282861128
-1028.8416 -15.833767 80.419594 4282926663
-1026.214 -16.197338 80.546066 4282861126
-1023.7433 -16.31851 80.773224 4282861129
-1021.2789 -16.242718 81.107758 4282795592
-1018.6408 -16.215464 81.001915 4282860872
-1016.2867 -16.107346 80.787544 4282861384
-1014.8043 -16.040154 81.160347 4282664256
-1053.6316 -14.039265 80.172058 4283516231
-1043.3077 -14.386792 80.123192 4282598465
-1040.7888 -13.901114 80.070305 4282860866
-1039.0115 -13.502598 80.026741 4282730053
-1035.8397 -13.886296 80.439125 4282598983
-1033.9814 -13.990853 80.261383 4282861125
-1031.1527 -13.912738 80.469406 4282795335
-1028.8041 -13.794952 80.560646 4282795590
-1026.141 -13.873607 80.560089 4282991945
-1023.7489 -13.726036 80.706711 4282795077
-1021.3029 -13.746002 80.775764 4282861379
-1018.8182 -13.789556 80.648293 4282795847
-1016.1562 -13.690066 81.01857 4282861383
-1014.6289 -13.756895 80.734344 4282926405
-1046.2457 -10.598513 80.209663 4282663236
-1043.5868 -10.887722 80.118874 4282664008
-1040.7469 -11.506382 80.027206 4282664261
-1039.3652 -11.935371 80.008202 4282401858
-1036.0935 -12.319229 80.117233 4282270534
-1034.0686 -11.911613 80.020706 4282795591
-1031.1388 -11.886135 80.197372 4282467653
-1028.7288 -11.454935 80.404663 4282730050
-1026.26 -11.234567 80.271217 4282664516
-1023.5923 -11.257799 80.482529 4282664514
-1021.2524 -11.230344 80.466522 4282861124
-1018.7782 -11.24166 80.420204 4282730055
-1016.2324 -11.257273 80.639885 4282795844
-1014.475 -11.134311 80.555687 4282729794
-1049.5197 -9.0625668 80.287186 4282467905
-1046.1875 -9.7079773 80.192657 4282729541
-1043.6802 -9.7260284 80.113342 4282532430
-1032.6478 -9.2899141 80.358276 4282926404
-1031.6765 -8.9577932 80.456635 4282795333
-1028.5454 -8.702632 80.373169 4282729538
-1026.349 -8.7173643 80.225342 4282729799
-1023.747 -8.7458258 80.472084 4282401862
-1021.1611 -8.8059521 80.390671 4282795332
-1018.7526 -8.8026772 80.457367 4282664517
-1016.3303 -8.7442045 80.522583 4282730308
-1014.4406 -8.6754532 80.494278 4282860869
-1032.0686 -6.473803 80.35508 4282860356
-1028.2876 -6.9172931 80.228722 4282466629
-1026.0077 -6.2455316 80.144157 4282860613
-1023.8512 -6.399478 80.375023 4282532674
-1021.175 -6.3801575 80.290001 4282664261
-1018.7109 -6.2526169 80.349098 4282664006
-1016.2796 -6.2691264 80.475952 4282664775
-1014.3151 -6.3108587 80.50116 4282729799
-1051.266 -4.09095 80.2323 4281943106
-1048.5354 -3.3756943 80.124573 4282467394
-1046.1177 -3.0719233 80.035767 4282401607
-1043.1949 -2.9185638 80.113647 4282860603
-1032.4729 -3.9503784 80.102325 4282269742
-1028.8683 -3.4759104 80.137665 4282861123
-1025.7814 -3.9028399 80.25045 4282598980
-1023.663 -3.7416573 80.328468 4282598723
-1021.4414 -3.6632998 80.306099 4282664005
-1018.7952 -3.6892781 80.267189 4282730053
-1016.2347 -3.7927628 80.221596 4282730056
-1014.1942 -3.8940337 80.171463 4282860869
-1052.309 -1.2707717 80.209679 4282794822
-1046.3469 -1.2871497 80.023254 4282532677
-1043.1425 -1.8470078 80.387733 4282794825
-1042.2693 -0.15452576 80.334717 4282271050
-1036.5214 -0.19921112 80.403053 4282663493
-1032.8696 -0.78249782 80.159637 4282598215
-1031.4913 -1.3358071 80.160614 4282664004
-1029.463 -1.1290919 80.110374 4282533185
-1026.0916 -1.9219971 80.07341 4282664514
-1023.5344 -1.3056673 80.113396 4282860613
-1021.7055 -1.4996623 80.248695 4282861125
-1018.4243 -2.0430849 80.23143 4282664776
-1016.6459 -2.1062508 80.177002 4283056712
-1013.8774 -1.3426752 80.116737 4282729540
-1046.979 0.62633514 80.011879 4282663745
-1042.6372 1.3347416 80.244888 4282008129
-1042.3024 1.1161815 80.307693 4281877317
-1036.3718 1.2340115 80.535194 4282401605
-1033.6094 1.2280816 80.249435 4282401861
-1030.6587 1.3812797 80.100456 4282664003
-1029.3004 1.3166877 80.113884 4282794819
-1025.8381 1.441586 80.140724 4282729540
-1023.5705 1.2397619 80.290619 4282598470
-1021.1184 1.2814471 80.287743 4282664263
-1018.7482 1.3455791 80.246536 4282795850
-1016.4071 1.5236499 80.139656 4282730311
-1014.0034 1.392 80.180153 4282861127
-1038.439 3.6993008 80.254547 4282795594
-1036.8387 2.5701091 80.169106 4282729794
-1033.6152 3.7635291 80.172348 4282794819
-1031.2218 3.6765273 80.092575 4282467140
-1028.8809 3.6787872 80.38063 4282926146
-1026.3591 3.5119042 80.242996 4282795079
-1023.5441 3.5920718 80.335091 4282533189
-1021.1675 3.695008 80.455826 4282729798
-1019.0673 3.6175823 80.277618 4282795334
-1015.999 3.6565361 80.324013 4282861129
-1013.748 3.9053688 80.502716 4282729799
-1028.6912 5.2804236 80.410835 4282599234
-1026.2034 5.245842 80.324402 4282795840
-1024.2708 5.4562354 80.258095 4282597947
-1020.9402 6.10917 80.296867 4282860872
-1019.1894 5.705411 80.09565 4282926405
-1016.153 5.4623213 80.187973 4282598727
-1013.5486 6.0617833 80.279076 4282729799
-1012.3351 6.7957115 80.218048 4282401609
-1052.2604 9.4708405 80.009033 4282598469
-1023.7292 9.5093803 80.157837 4282795331
-1019.1575 7.5243835 80.025696 4282665036
-1013.8303 7.9755759 80.015312 4282860873
-1040.2988 12.173373 80.320984 4282796105
-1038.844 12.048978 80.244446 4282861131
-1035.9794 12.161045 80.14222 4282074180
-1033.6752 12.177722 80.0952 4282598725
-1031.7378 12.226368 80.028137 4282729795
-1023.7512 10.316284 80.124512 4282729542
-1048.765 13.61958 80.280396 4282533185
-1045.7235 14.794609 80.166443 4282664263
-1042.6396 14.545536 80.145416 4282073415
-1040.1805 13.633334 80.220001 4282532933
-1038.6348 13.488106 80.211937 4282795075
-1036.118 13.900607 80.179657 4282729797
-1033.6979 13.785869 80.308319 4282795336
-1031.5731 13.973187 80.294899 4282664772
-1027.8983 14.575281 80.177887 4282796612
-1025.2029 14.412776 80.248398 4282467907
-1024.1185 14.332336 80.062439 4282598982
-1018.5049 14.671432 80.363602 4282534216
-1017.3696 14.814438 80.483643 4282860874
-1013.6607 14.908894 80.35498 4282139724
-1011.8949 14.958099 80.136536 4282271814
-1045.7412 15.441601 80.14212 4282467655
-1042.6608 15.674105 80.215042 4282598981
-1040.0784 15.74012 80.112305 4283123523
-1037.9464 15.825686 80.054344 4282664523
-1036.3737 15.575356 80.08046 4282729798
-1034.7314 15.546288 80.061531 4282861379
-1030.7635 16.011683 80.264885 4282730314
-1027.9377 16.135063 80.158569 4282795588
-1026.1882 16.278952 80.207123 4282795592
-1024.1497 16.397781 80.083603 4282665032
-1020.3146 15.24472 80.08606 4282664773
-1018.4798 15.886402 80.38311 4282796103
-1017.4047 16.084484 80.416344 4282927434
-1013.6894 16.038122 80.343788 4282599239
-1011.7569 16.087961 80.222603 4282795587
-1025.4052 18.757793 80.102989 4282795842
-1024.4449 18.775331 80.107971 4282927427
-1021.4636 19.125517 80.096451 4283057737
-1018.3886 19.475468 80.333733 4283124041
-1016.6641 19.426718 80.26741 4282862157
-1014.1038 19.579508 80.273537 4282796107
-1021.6454 20.200733 80.040497 4282796616
-1018.2418 20.444984 80.383385 4283189580
-1016.0601 20.17944 80.249176 4283058503
-1014.2067 20.345776 80.216125 4283058507
-1011.7486 21.142273 80.161201 4282926917
-1034.1536 25.265198 80.113403 4283387716
