# .PCD v0.7 - Point Cloud Data file format
VERSION 0.7
FIELDS x y z rgba
SIZE 4 4 4 4
TYPE F F F U
COUNT 1 1 1 1
WIDTH 792
HEIGHT 1
VIEWPOINT 0 0 0 1 0 0 0
POINTS 792
DATA ascii
-982.87775 66.126999 54.145092 4279768587
-981.9212 68.020851 54.824726 4280032017
-979.19727 73.661385 54.02713 4279638793
-977.73224 76.868584 53.711079 4279899402
-977.64258 77.693954 53.732647 4280224786
-976.66827 79.068916 53.334637 4280424204
-975.90344 80.815788 53.904289 4280621826
-974.98535 81.956444 53.675659 4280358915
-975.00586 82.78508 53.86322 4279374857
-974.37494 83.976357 53.192341 4280558093
-973.10486 86.254356 53.269726 4280618512
-972.50696 88.834389 53.56134 4280226321
-970.9129 91.339302 54.240276 4280294416
-984.2124 63.537865 55.956902 4279966733
-983.24304 66.051186 56.367409 4279768332
-982.04413 68.510933 55.930511 4280162819
-980.49451 71.270233 56.357227 4280424971
-980.03577 72.621429 56.018127 4278327060
-979.39935 73.79969 56.437511 4280228610
-978.46368 75.997841 56.307751 4279898112
-977.5282 78.349747 56.616577 4281076257
-976.57471 79.677917 55.733032 4280163089
-975.6297 81.619522 55.945019 4280423689
-975.20013 83.417404 56.634747 4279899916
-974.5672 84.060684 55.897106 4279507983
-973.46051 86.410522 56.069035 4279965708
-972.8241 88.379692 55.8214 4280225811
-971.86194 89.58078 56.192535 4279967511
-971.12018 91.296089 56.134384 4280359691
-970.31219 93.633652 56.271217 4280820248
-969.98737 93.942764 55.234985 4281539608
-969.31836 95.734138 55.997528 4281017372
-995.32489 114.79607 57.173645 4281410832
-998.00098 116.21366 57.418701 4281673755
-995.65967 115.27809 57.479004 4281937434
-985.21204 62.809341 58.5224 4280425481
-983.99042 64.593697 58.538372 4280029459
-983.6297 65.871071 59.068024 4280359689
-982.52954 68.413086 59.746643 4279311616
-981.80499 69.471008 58.260315 4280359953
-980.89313 71.318909 58.65012 4280358922
-980.17981 72.896561 58.782074 4278721292
-979.70142 73.564445 58.787521 4280555790
-978.677 76.25576 57.8974 4280356614
-978 77.896332 58.30838 4280880147
-976.88794 79.57048 58.135864 4279900955
-976.24084 81.390366 58.705482 4280554770
-975.73389 83.007095 58.863647 4279638284
-974.04175 85.994286 58.773708 4280228106
-973.29993 87.768616 58.425598 4280753412
-972.19299 89.62381 57.772675 4280032043
-971.57129 91.124451 58.125458 4280294674
-970.32587 93.980316 58.890244 4280884736
-969.08447 97.002495 58.723572 4280101655
-969.1062 97.786674 59.169739 4279708709
-970.54431 102.37688 59.791321 4280429104
-972.82208 103.82771 59.15205 4281345817
-971.48328 103.03972 59.262218 4281083940
-978.41693 106.4128 59.361782 4281477672
-976.55627 105.45349 59.242859 4281806377
-985.3465 109.52798 59.167419 4281215011
-984.01532 109.09788 58.792416 4281084186
-990.99219 112.1222 59.282623 4281151271
-986.40765 110.21732 59.229877 4280952348
-995.95978 114.62766 59.085976 4281214987
-993.14667 113.15503 59.49931 4281477150
-991.98364 112.93772 58.926868 4281674254
-1001.019 116.7703 59.94334 4281542947
-998.63702 115.88912 59.179199 4281412119
-997.00879 115.56774 58.749592 4281149723
-1005.7281 119.39542 58.646912 4281149220
-1003.8651 118.54276 58.703888 4281281062
-1002.2976 117.91275 58.800995 4281871659
-984.70215 63.618752 60.704376 4279507977
-983.89807 66.140839 61.444386 4280359946
-981.44806 70.843544 60.77457 4280883727
-980.33325 73.302711 60.851807 4279179276
-976.43225 81.634354 60.426636 4280817940
-1024.9324 89.463135 61.213745 4280755746
-973.1416 88.142448 60.175171 4280227850
-1022.7664 94.128563 60.687805 4281674011
-1022.4041 94.365692 61.323792 4281608741
-1021.83 95.650017 61.8022 4280559386
-969.62305 97.171837 61.207581 4280689678
-971.19659 102.0655 61.625088 4281673234
-976.12683 104.54313 61.427624 4281871397
-973.62811 103.38673 61.313511 4281411096
-971.8717 102.75555 60.498077 4280821275
-980.97125 106.90958 61.063736 4281215251
-979.0791 106.11691 61.005272 4281411109
-987.68091 109.84679 61.29068 4281672737
-986.3548 109.35503 61.105812 4281280294
-984.10742 108.19176 61.237827 4281083942
-992.84357 112.35131 61.448608 4281019938
-991.34119 111.70898 61.089199 4281411880
-988.3468 110.15948 61.286667 4280822288
-997.83893 114.62397 61.494637 4281149978
-996.33966 114.0652 61.222507 4281148701
-993.90131 112.95744 61.291348 4281673753
-1002.9967 117.22724 61.199482 4281477662
-1001.1234 116.28916 61.379791 4281674274
-998.96399 115.54417 60.851494 4281347095
-997.2262 115.21684 60.435486 4280824103
-1006.1451 118.84209 61.197319 4281674528
-1004.3484 117.93391 61.012123 4281477928
-1024.984 87.232285 64.78363 4282728515
-1025.0885 87.853241 63.360779 4282463279
-1024.2803 89.142502 64.154701 4282005564
-1023.595 90.879082 63.408066 4281742389
-1021.9503 94.048607 63.90971 4282136631
-1021.2993 95.630905 63.826031 4281874226
-970.08551 97.1203 62.783081 4281673486
-1019.3257 99.357887 63.975189 4282137149
-970.47815 98.931503 63.885101 4281608219
-969.49335 98.864372 63.807762 4281411871
-1019.0036 100.40591 63.823101 4281675546
-973.28729 102.02225 63.923851 4281345571
-971.09601 100.9013 63.717106 4281477398
-969.61078 100.40702 63.845554 4281740049
-978.47729 104.71735 64.336426 4281936405
-975.55304 103.47495 63.702271 4281213979
-974.1319 102.91978 63.318062 4281083170
-986.83917 107.09731 64.684265 4281215005
-981.76892 106.43256 63.439194 4280887321
-978.82715 105.24749 63.266235 4281674783
-988.3197 109.43056 63.493446 4281346585
-986.67743 108.50193 63.766285 4281410587
-984.1485 107.63365 62.716187 4280296994
-995.05267 111.94479 64.642578 4281018404
-993.77808 112.19511 63.394775 4281019425
-991.99677 111.44685 62.904369 4281345830
-989.46204 110.12505 63.094971 4281215774
-997.76337 113.33176 62.937805 4281411093
-996.66229 113.50608 63.276398 4281149986
-994.46259 112.63412 62.774963 4281411108
-1006.3369 117.2377 64.821533 4282002462
-1004.1045 116.81871 63.668438 4281412897
-1001.4223 115.79418 63.523632 4281609499
-999.77625 115.12573 63.093994 4281741849
-1005.7278 117.70663 63.907288 4282199572
-1024.7609 86.945488 66.480995 4282664264
-1023.8728 88.834885 65.985367 4282795080
-1022.8737 91.08445 65.892517 4282664520
-1022.2927 92.010223 66.379166 4283123012
-1021.5519 93.837105 66.253922 4282925891
-1020.824 95.406761 66.261688 4282730322
-1019.8474 97.071419 66.843567 4283123519
-1019.1857 98.562912 66.430649 4282598468
-971.23468 99.172264 65.286316 4281607456
-1018.257 100.74709 66.402115 4282532419
-975.13409 102.288 65.225769 4281935915
-973.68732 101.02023 66.085793 4281476894
-972.14648 100.68675 65.518059 4281477402
-981.078 104.76211 66.532776 4281477419
-978.11475 103.88229 66.226357 4280888611
-975.8783 102.67065 65.704971 4281148952
-988.33691 107.10056 66.391785 4281082404
-986.3905 107.16615 65.480301 4281018656
-983.58289 106.20315 65.403107 4281346856
-982.01349 105.39308 66.235825 4281477922
-992.32239 109.89251 66.926086 4280430116
-988.78638 108.27237 65.843384 4281346341
-987.05603 107.64004 65.567932 4280951588
-995.67841 111.92386 65.727051 4280888107
-994.38562 111.96581 65.083557 4280364803
-998.55939 113.38342 65.587929 4281149714
-997.02338 112.55341 65.094849 4280823838
-1006.2271 116.55777 67.146301 4281412382
-1003.6292 115.54092 65.884186 4281084966
-1001.0181 115.07668 65.227905 4280954155
-1007.6123 117.52154 65.899292 4280427288
-1007.2762 117.52512 66.102173 4281804823
-1025.8921 83.064705 69.538269 4283321163
-1024.13 87.323578 67.982788 4283058500
-1023.299 88.390327 68.988197 4283189062
-1022.912 90.295135 67.654114 4282860875
-1021.9995 91.100449 68.637115 4282533700
-1020.5937 94.128799 68.997963 4282533709
-1020.3872 95.354469 68.132057 4282796109
-1019.7704 96.601715 67.99884 4283058760
-1018.2419 99.266251 68.714432 4282862156
-1018.0037 100.34945 68.062401 4282926665
-975.42657 101.65759 69.852112 4280036880
-978.0636 102.78588 69.461304 4281807389
-987.98267 107.20395 67.965637 4281604893
-983.99628 105.67489 69.984253 4281280297
-991.7901 109.24876 68.022797 4281739559
-988.56213 107.68407 68.181839 4281281054
-1000.1991 113.06676 68.639893 4282133299
-1008.0087 116.92617 69.11039 4280952327
-1006.5118 116.5398 68.190979 4281412145
-1004.8664 115.62911 67.878052 4281610784
-998.14563 61.898045 72.147461 4282271562
-1026.6301 78.866821 71.690063 4283122245
-1025.6608 81.691528 71.888382 4282795845
-1025.8413 82.759193 70.211975 4283057992
-1023.7956 84.828003 72.388428 4282467663
-1022.9471 86.822151 71.955193 4282467908
-1022.7679 88.019554 71.273048 4282730307
-1022.0148 88.45385 72.309982 4282729795
-1020.4083 91.906387 71.966156 4282926148
-1020.1642 93.533119 71.238373 4282861386
-1018.5324 95.703278 72.208801 4282862149
-1017.6849 98.627724 71.144302 4282926918
-1017.0941 98.993324 72.190002 4282598980
-1014.806 104.57874 71.319229 4282665287
-981.3493 104.11382 70.098267 4281872679
-983.99274 105.60048 70.10144 4281543464
-1012.0402 109.52818 72.080566 4283057491
-1010.9685 111.99555 71.934509 4282467655
-1010.4753 112.82243 72.492737 4282336578
-1009.7811 114.35964 71.890381 4283648845
-1004.3282 114.18411 72.481873 4281216542
-1000.0223 62.458637 74.798035 4282468161
-998.08008 61.93465 74.214149 4282796107
-996.74847 61.246517 74.696716 4283058769
-1002.9533 64.750038 74.863968 4282730310
-1006.6428 65.805908 73.817261 4282927173
-1013.0262 69.08606 74.64447 4282730312
-1018.4602 71.865479 74.623047 4283189319
-1014.6979 70.822113 74.579529 4283058496
-1025.0177 74.790512 74.924561 4282992714
-1024.6934 74.79866 74.91333 4282796362
-1021.7257 73.807106 74.110229 4283188806
-1025.0259 75.114532 74.919739 4283057737
-1024.7017 75.122681 74.908447 4282797385
-1025.7842 79.318794 74.845642 4282533188
-1025.3663 80.853004 73.493752 4282795081
-1024.8003 81.869087 74.255501 4282925897
-1023.9145 83.588264 73.917702 4282729797
-1022.8672 86.019913 73.388504 4282729801
-1022.2531 86.856339 73.926613 4282599238
-1021.5081 88.537331 74.019829 4282860867
-1020.1605 91.854767 73.416519 4282795846
-1019.7382 92.183594 74.306213 4282991938
-1019.272 93.432739 73.998856 4282664523
-1018.1189 95.813507 73.85453 4282992968
-1017.3441 97.245399 74.800255 4282861392
-1016.6395 98.593796 73.916679 4282468164
-971.43341 98.222664 73.747742 4282395945
-1015.4891 101.32135 73.889404 4282861381
-1014.9891 102.30977 74.607178 4283057999
-978.01184 101.86717 73.414795 4281872427
-976.36267 100.97898 74.35553 4281741099
-1015.0612 102.79566 73.434143 4283189330
-1014.0861 104.30509 73.628273 4283254857
-982.92352 104.0249 74.097687 4282002992
-1013.2265 106.03265 73.803078 4282796106
-1012.5961 107.72543 73.135071 4283057486
-1011.976 108.87837 73.724144 4282730061
-994.42657 109.59576 73.678955 4281674774
-1010.6582 111.65498 73.685493 4282861380
-996.08038 110.24305 73.167786 4280952618
-1010.1189 112.81898 73.181519 4282664511
-1009.6324 113.52383 74.070244 4283123788
-1006.7725 115.42999 74.447975 4281280811
-993.40778 59.747932 76.819977 4283057736
-991.2287 58.799603 76.682518 4282860874
-998.21106 62.317574 75.477814 4282337611
-996.97424 61.806892 76.255608 4283057738
-994.29224 60.502106 76.74173 4282795082
-1001.215 63.935707 76.195808 4282861637
-999.44135 62.921375 76.609764 4282533188
-987.01447 63.289719 77.330933 4282335814
-1006.207 66.309319 76.75573 4282926920
-1004.6804 65.962639 77.148201 4282926923
-1001.8079 65.352898 76.790253 4282795841
-1012.7444 69.374733 76.097168 4282861638
-1011.3393 69.150032 76.653252 4282861381
-1008.9051 68.208755 75.979012 4282533188
-984.2663 69.127312 76.496765 4282336581
-1018.5944 72.296982 75.317413 4283123017
-1016.2628 71.614418 76.370277 4282926917
-1013.3962 71.401291 77.289719 4282532933
-1011.5449 71.226723 77.345818 4282533192
-1009.4286 71.324593 77.412849 4282401862
-1006.5529 72.160461 77.402306 4282860358
-1023.2407 74.726151 76.294014 4282926924
-1021.743 74.444344 76.519608 4283057483
-1018.5405 73.24575 76.689415 4282860873
-1016.5177 72.971184 76.990929 4282861380
-1013.1342 73.365334 77.425308 4282336318
-1011.0055 73.690666 77.047188 4282729539
-1009.0698 73.797142 77.301888 4282598214
-1006.2141 73.735229 77.251968 4282794567
-1004.4256 73.731247 77.335693 4283187518
-1001.8367 73.634613 77.249451 4282467402
-998.19482 74.144844 77.317436 4282533186
-996.14844 74.496391 77.333305 4282598724
-993.95764 74.406693 77.351784 4282598468
-991.16614 74.01355 77.367889 4282664510
-981.80255 74.404755 77.322693 4282663748
-1025.3759 76.084641 76.588531 4282861380
-1023.8458 75.985939 77.094292 4282795595
-1022.2886 75.271652 77.220154 4282926659
-1019.006 77.132454 77.476723 4282860875
-1017.1382 77.161369 77.412476 4283056708
-1014.8672 77.200989 77.492157 4282336576
-1011.399 76.156975 77.392441 4282663747
-997.67108 75.481956 77.401642 4283057470
-996.23767 76.471718 77.489899 4282533192
-993.69006 76.089012 77.375992 4282664009
-991.53485 75.781509 77.343849 4282664255
-981.19336 75.878952 77.380096 4282926915
-1025.3232 79.001488 76.203918 4282533191
-1023.8499 78.721893 77.153679 4282730054
-1020.4899 79.054398 77.102165 4282664261
-1018.9065 78.844147 77.356461 4282598727
-1016.2691 79.009201 77.11776 4282730052
-1013.8619 79.115761 77.350067 4282533184
-1011.606 78.85025 77.291092 4282664002
-1009.3848 79.255707 77.319595 4282664002
-1005.2177 79.371162 77.246124 4282466121
-1003.9243 79.401756 77.224907 4282466883
-1025.131 80.318695 75.274048 4282926411
-1023.7427 81.169876 76.893211 4282860869
-1021.1778 81.392677 77.348228 4282795335
-1018.7507 81.297188 77.351738 4282598212
-1016.2077 81.312019 77.096687 4282664006
-1013.7196 81.18605 77.215729 4282532420
-1011.8282 81.27758 77.25769 4282664006
-1009.2219 81.60524 77.285324 4282664005
-1005.2468 80.502495 77.223694 4282466882
-1001.2194 81.532761 77.42749 4282139713
-998.85999 81.516876 77.349243 4282598213
-979.04651 80.294441 77.215698 4282271296
-1023.0996 83.82251 76.348862 4282664262
-1021.5081 83.740685 77.275612 4282795080
-1018.2834 83.874634 77.277809 4282598724
-1016.1575 83.67823 77.22229 4282729796
-1013.8276 83.60807 77.174019 4282467138
-1011.3262 83.561691 77.229103 4282663750
-1009.3244 83.302628 77.248428 4282794820
-1005.7054 84.248558 77.049377 4282598724
-1003.8098 84.111664 77.222389 4282663748
-1001.0312 84.314178 77.307114 4282532931
-998.06049 84.506378 77.385941 4282926149
-996.44598 84.546944 77.330078 4282860358
-994.02002 84.446518 77.249413 4282663752
-990.62891 84.813255 77.478577 4282795587
-989.01514 84.85318 77.422623 4282467903
-1022.5929 85.411415 76.316299 4282795588
-1021.1378 86.295013 76.890442 4282729546
-1018.8027 86.230057 77.160881 4282598981
-1016.3815 85.990921 77.220764 4282730053
-1013.7682 85.91188 77.26416 4282663493
-1011.3915 85.406288 77.22963 4282598727
-1005.6916 85.790375 77.119537 4282664003
-1003.8029 85.563713 77.029945 4282860358
-1001.0603 86.268806 77.380974 4282467395
-998.98798 86.018669 77.386314 4282466885
-995.97833 85.204987 77.30056 4282729286
-993.07642 85.439827 77.196716 4282337094
-991.1192 86.178581 77.226334 4282795079
-988.80273 86.322449 77.213913 4282794820
-986.224 86.808365 77.30545 4282861125
-984.70068 86.721115 77.394592 4282991684
-981.43152 86.555 77.271019 4282795335
-979.66809 85.702095 77.37149 4282926149
-975.9978 87.321838 77.047058 4283320649
-1020.6783 88.696709 76.753548 4282860870
-1018.7379 88.777443 77.110916 4282729542
-1016.458 88.984215 77.176048 4282664263
-1013.483 89.138924 77.141586 4282401859
-1011.3312 88.907387 77.088257 4282532932
-1008.6788 89.382156 77.171143 4282402121
-1006.9868 89.040047 77.211777 4282533449
-1001.014 88.630928 77.387108 4282336327
-999.32806 89.209068 77.291771 4282729285
-992.69873 89.931 77.44339 4282727750
-992.2146 89.943062 77.426636 4282269772
-988.3924 88.066086 77.088493 4282598210
-981.66425 87.929932 77.265816 4283123527
-975.95782 88.298271 77.145676 4282664767
-1020.1439 90.52224 75.95797 4282860863
-1018.6896 91.165268 76.419388 4282860872
-1016.2242 91.089584 76.983574 4282795334
-1013.7702 91.164337 76.791496 4282467396
-1011.1854 91.205353 76.594925 4282795077
-1008.7877 91.152199 76.962204 4282664265
-1006.3271 91.246132 77.010048 4282729542
-1004.0316 91.739204 77.412949 4282598725
-1001.113 91.346809 77.123642 4282598470
-999.07104 91.22068 77.083908 4282598724
-995.64203 91.811852 77.217102 4282663751
-993.60803 91.432411 77.331398 4282664265
-991.63391 91.717644 77.198227 4282795334
-988.90247 91.879745 77.430946 4282532164
-986.31812 90.990929 77.335197 4282598729
-984.33813 92.161751 77.312141 4282533704
-980.32001 92.283005 77.461975 4282861897
-1018.4892 93.465546 76.496796 4282664519
-1016.348 94.65213 77.258141 4282533196
-1013.2114 93.946335 77.212555 4282204997
-1010.903 94.134293 77.244011 4282532933
-1009.0576 93.650948 77.276466 4282467401
-1003.4269 93.584648 77.242767 4282598469
-1001.4706 93.474815 77.196625 4282532934
-999.01855 93.222244 77.238396 4282730308
-995.92102 93.084778 77.203865 4282139205
-993.67926 93.491982 77.186974 4282795333
-991.17065 93.677094 76.939682 4282729797
-988.88074 93.739609 77.286987 4282664519
-986.49835 93.773735 77.240082 4282795334
-984.14746 93.724213 77.232567 4282860872
-980.2113 93.732147 76.959198 4282992710
-979.02643 94.236259 77.280167 4283123782
-976.03156 94.287491 77.389633 4283058253
-973.30682 94.14962 77.45504 4282861380
-972.28711 93.691216 76.597374 4282728764
-1017.7299 95.369568 76.30304 4282729284
-1016.131 96.283203 76.854042 4282598983
-1013.7505 96.31031 77.043396 4282729798
-1011.3325 96.248634 76.644463 4282664262
-1008.7264 96.299385 77.001114 4282467400
-1005.9027 96.570251 77.281349 4282730057
-1003.8248 96.553192 77.333382 4282729798
-1001.3467 96.625397 76.980347 4282664520
-998.68707 96.789032 77.242661 4282795594
-996.42822 96.78363 77.428795 4282598729
-992.68103 95.010925 76.824585 4282401601
-990.91681 96.295074 77.238541 4282861386
-989.28949 96.625801 77.188339 4282664780
-983.89154 96.063942 77.217285 4282927177
-980.29736 95.486908 77.168571 4282665288
-978.76294 96.093773 77.30426 4283189322
-976.39325 95.588982 77.321671 4283123787
-972.97852 95.496422 77.429581 4283058514
-972.05157 97.088264 77.324867 4283452750
-1015.5544 98.578712 76.538223 4282467910
-1013.4661 98.578743 76.943336 4282664265
-1011.2491 98.601631 76.950478 4282730057
-1008.7586 98.785439 77.265747 4282860871
-1006.1472 98.913727 77.149666 4282730054
-1003.6303 98.874031 77.040825 4282664262
-1001.3146 98.636879 76.841484 4282533448
-998.85016 98.746429 77.235031 4282795848
-996.33173 98.939186 77.295288 4282730051
-992.78271 99.599037 77.403587 4282534212
-991.35522 98.802979 77.001457 4282927178
-988.87744 98.470802 76.940857 4282730056
-986.078 99.002083 77.219284 4283189323
-984.22607 99.712784 77.275543 4282337610
-978.60577 98.811806 77.221169 4283124811
-976.50549 99.394859 77.293564 4283190605
-972.38776 97.6129 77.369446 4283256660
-1015.2902 100.42461 76.26075 4282991435
-1013.5579 101.24622 76.857613 4282795082
-1011.1661 101.44335 77.189293 4282598726
-1008.8498 101.30398 77.029472 4282795338
-1006.2513 101.17895 76.894432 4282926664
-1003.851 101.32982 76.985588 4282730057
-1001.1951 101.075 77.118362 4282926407
-998.55737 101.30325 77.261261 4282861382
-996.22815 101.33878 77.135231 4283057734
-993.7179 101.54221 77.382874 4282926920
-991.33313 101.03603 77.092155 4282796103
-989.0506 101.01254 76.986053 4282796107
-985.96173 101.37315 77.133308 4283189831
-983.84918 101.69513 77.05497 4283190605
-980.25769 102.18965 76.755188 4282659883
-978.37396 100.24166 77.144554 4283387217
-976.6524 100.07822 76.337952 4282140484
-1013.2518 103.57835 76.577782 4282598985
-1011.1741 103.83743 76.973862 4282730310
-1008.7727 103.76085 77.117355 4282730055
-1006.2188 103.62268 77.162849 4282861384
-1003.8241 103.86012 77.090057 4282730313
-1001.2177 103.9248 77.257309 4282861641
-998.69232 103.87297 77.263802 4282861642
-996.18243 103.63445 77.275909 4282861638
-993.70599 103.68654 77.287796 4282927176
-991.42041 103.35885 77.269928 4283057993
-989.03125 103.03532 77.162888 4283190091
-986.11627 103.26487 77.065895 4283190093
-983.88629 103.00132 76.783287 4283386960
-982.2016 102.64624 77.283752 4283451712
-1012.8469 105.66436 75.848473 4282992970
-1011.2428 106.23943 76.697716 4282861127
-1008.6898 106.25858 76.969635 4282861641
-1006.2908 106.20583 76.680191 4282992459
-1003.8223 106.2803 76.807259 4282861641
-1001.1984 106.30621 76.770058 4282992715
-998.70001 106.2906 76.723618 4282927693
-996.25732 106.29932 77.061241 4282861644
-994.01373 106.18586 77.140472 4283124044
-991.92596 106.33459 77.24707 4283059024
-989.06512 105.64188 77.07914 4283387215
-987.44177 105.24191 76.941223 4281812552
-1010.8693 108.53228 76.651215 4282730566
-1008.7141 108.80125 76.999939 4282796107
-1006.2434 108.8019 76.812378 4282796105
-1003.8464 108.72139 76.994972 4283124039
-1001.2722 108.71944 76.92897 4282927437
-998.66821 108.53107 76.796432 4282862670
-996.34174 108.50085 76.400467 4283124813
-994.18359 108.04516 76.392097 4283190093
-1010.3961 110.81905 75.999863 4282861381
-1008.7841 111.27245 76.622734 4282861642
-1006.2066 111.26438 77.03923 4282927437
-1003.7839 111.19716 76.966705 4283059020
-1001.4359 110.87386 77.265091 4283256401
-999.2005 110.30914 77.207413 4283321929
-1008.3445 113.52158 76.363411 4283124301
-1006.4006 113.59779 76.100555 4282993229
-1004.2429 112.84326 76.462776 4283387474
-1007.8026 115.03832 75.447815 4283121746
-991.15802 59.357441 78.415245 4282926917
-996.00128 62.229065 78.813324 4282926915
-993.60742 61.44915 78.717514 4282861125
-991.25507 61.162743 78.988747 4282795588
-989.04828 61.369602 78.908272 4282532934
-1000.4984 64.227722 77.91465 4282795592
-998.67389 63.955448 78.025497 4282926403
-996.18286 63.829174 78.505905 4282795333
-993.71869 63.750805 78.683876 4282467142
-991.32117 63.682804 78.68399 4282532933
-988.77844 63.781822 78.603539 4282664003
-987.06525 64.343018 78.485825 4282467138
-1005.7236 66.969513 78.562164 4282598988
-1003.5076 66.45652 78.19841 4282795592
-1001.1741 66.423523 78.110115 4282926407
-998.81 66.243607 78.099968 4282795078
-996.29059 66.266014 77.939827 4282598726
-993.67743 66.195518 78.183548 4282532933
-991.22705 66.307648 78.321999 4282532934
-988.84869 66.244553 78.506454 4282729543
-986.66553 66.41008 78.17981 4282664515
-1010.2728 69.144226 77.959671 4282532934
-1008.6603 69.170769 78.330666 4282729800
-1006.2631 68.782188 78.596931 4282795334
-1003.7755 68.813072 78.396042 4282730053
-1001.2225 68.782028 78.282295 4282532932
-998.73633 68.741165 78.631416 4282533191
-996.33954 68.708977 78.353661 4282729541
-993.78998 68.751595 78.236488 4282467394
-991.15735 68.750702 78.463074 4282664004
-988.70593 68.666588 78.538498 4282532932
-986.35248 68.750114 78.581169 4282598723
-984.64569 69.370941 78.896942 4282664003
-1015.1324 71.828743 78.134834 4282861888
-1014.5228 71.902756 78.032845 4282664523
-1011.1282 71.17144 77.86441 4282664008
-1008.4566 71.260536 77.945793 4282729539
-1006.188 71.151237 78.089577 4282795336
-1003.8193 71.215561 78.291275 4282467141
-1001.2264 71.201378 78.213562 4282598725
-998.67975 71.25058 78.475746 4282663748
-996.26208 71.285172 78.468697 4282729539
-993.78186 71.184563 78.416451 4282663748
-991.23694 71.169136 78.603256 4282664005
-988.69574 71.219429 78.814461 4282532932
-986.28491 71.205345 78.811394 4282533188
-984.21942 71.541885 78.776482 4282729542
-1021.0471 74.567963 78.048126 4282533191
-1018.7619 74.450066 78.15741 4282860872
-1016.1168 73.871422 78.094925 4282795334
-1013.815 73.872444 77.850578 4282598466
-1011.5499 73.882446 77.950119 4282729027
-1008.608 73.739342 77.943138 4282401602
-1006.1996 73.671997 77.847427 4282728774
-1003.741 73.678917 77.953239 4282664000
-1001.3167 73.744339 77.853348 4282664004
-998.84399 73.705429 77.904602 4282532932
-996.18958 73.66729 77.771767 4282401859
-993.71405 73.264908 78.126831 4282401605
-991.30737 73.675797 78.086525 4282664260
-988.71368 73.798843 78.418312 4282664005
-986.16626 73.885773 78.607315 4282664002
-983.79022 73.764648 78.280548 4282598470
-982.242 74.073395 78.077751 4282729539
-1025.5056 77.334473 78.401367 4283319879
-1023.6866 76.669319 77.585098 4282992203
-1021.1223 76.242203 77.722443 4282795334
-1018.7057 75.974258 77.945503 4282664263
-1016.2429 76.231865 78.08577 4282664004
-1013.6813 76.249741 78.116417 4282532932
-1011.1646 76.396904 78.029472 4282598211
-1008.8047 76.179138 78.229958 4282664006
-1006.2064 76.204689 78.384087 4282729032
-1003.6893 76.283768 78.047043 4282598469
-1001.2675 76.259605 78.157295 4282401602
-998.80347 76.23745 78.31144 4282663749
-996.23267 76.21843 78.195526 4282532935
-993.66046 76.418449 77.93544 4282598470
-991.25946 76.244492 78.006874 4282729286
-988.82037 76.268372 78.274902 4282532933
-986.2077 76.26973 78.430054 4282729541
-983.71625 76.242676 78.637009 4282860871
-981.7381 76.339935 78.251862 4282795588
-1025.5652 77.954201 77.713928 4283188803
-1023.4366 78.577866 77.62957 4282992200
-1021.5847 78.500687 77.587814 4282664005
-1017.9639 78.647911 77.791954 4282664265
-1016.3254 77.876617 77.795837 4282533191
-1013.5718 77.940414 77.853325 4282466373
-1010.7296 78.587166 77.910278 4282598216
-1008.6674 78.578438 77.98114 4282729540
-1006.3292 78.763741 78.270889 4282794821
-1003.7281 78.571922 77.755852 4282794821
-1001.2667 78.810516 78.045708 4282663748
-998.81946 78.651787 78.297432 4282532677
-996.27234 78.710968 78.224747 4282532934
-993.68713 78.825569 78.346443 4282598215
-991.263 78.71312 78.304764 4282467142
-988.79938 78.66198 78.347664 4282729798
-986.24762 78.684715 78.112091 4282729543
-983.6767 78.749687 78.280235 4282729545
-981.2937 78.830757 78.313911 4282730054
-979.7478 79.487579 78.455231 4282533191
-1023.2986 80.998558 77.583458 4282926147
-1021.8411 80.697884 77.571503 4282730054
-1018.5933 81.382889 77.532761 4282598469
-1010.8369 81.212868 77.782143 4282664009
-1008.6428 81.299896 77.834984 4282664257
-1006.3541 81.191124 78.110336 4282663748
-1003.7333 81.216469 78.042252 4282532933
-1001.1649 81.193062 77.935867 4282598213
-998.74323 81.128624 77.918129 4282598214
-996.34705 81.277191 77.884491 4282598213
-993.77209 81.254166 78.215149 4282467398
-991.15802 81.144989 78.516136 4282729797
-988.73212 81.198509 78.812141 4282664258
-986.32678 81.233734 78.017128 4282664002
-983.72614 81.322845 78.180305 4282664261
-981.19806 81.307114 78.431892 4282795590
-979.14124 81.491203 78.738228 4282467651
-1022.9181 82.889114 77.938629 4283188549
-1020.5656 84.077431 77.685188 4282991687
-1019.4926 83.584686 77.646095 4282861128
-1013.2484 84.455132 77.841019 4282795589
-1011.416 84.495926 77.826347 4282467142
-1008.3674 84.001106 77.784843 4282664007
-1006.4093 83.432671 77.692307 4282598728
-1003.7579 83.143776 77.675682 4282860357
-1001.4701 83.328392 77.751968 4282729283
-998.76215 83.741051 77.953751 4282467397
-996.26752 83.715439 77.883255 4282467142
-993.78143 83.570259 77.92762 4282466888
-991.27203 83.662773 78.218124 4282532932
-988.66412 83.757576 78.233871 4282795079
-986.30396 83.755844 78.474098 4282664263
-983.82233 83.723061 78.353035 4282729797
-981.1828 83.740623 78.164551 4282795334
-978.67932 83.739647 78.09343 4282598982
-977.10199 84.523216 78.31588 4282794821
-1021.0362 85.449646 77.575485 4282926666
-1019.7424 85.129715 77.803802 4282795587
-1015.7459 87.150917 77.7855 4282664257
-1013.6734 86.533066 77.92588 4282598469
-1011.218 86.264748 77.794136 4282729542
-1008.7432 86.166054 78.050362 4282729285
-1006.4197 86.42395 77.915474 4282598211
-1003.791 86.746658 77.964622 4282794823
-1002.1717 86.288139 77.946396 4282533445
-998.71582 86.310081 77.819443 4282663491
-996.13098 86.33815 77.991959 4282598216
-993.76385 86.277016 77.838463 4282532933
-991.81348 86.552956 77.847885 4282401864
-988.39447 86.120094 77.753792 4282533194
-986.10388 85.743683 77.849678 4282336839
-983.70685 86.096214 78.001373 4282664263
-981.23895 86.105484 77.822838 4282795336
-978.68085 86.336937 77.754105 4282730054
-976.80914 86.412514 77.873749 4282795337
-1020.3008 88.387634 77.935043 4282467911
-1019.9764 88.337166 77.926537 4282598724
-1015.7787 88.341255 77.719971 4282467139
-1013.8484 88.244743 77.848175 4282467651
-1011.0726 88.118149 77.664856 4282598729
-1008.8953 88.371811 77.726303 4282598215
-1006.0604 88.720306 77.695755 4282598722
-1003.6945 88.823059 78.036484 4282664261
-1001.6243 88.656837 78.120476 4282401605
-998.4845 88.400223 77.808548 4282598213
-996.21179 88.751717 77.906128 4282533191
-993.76611 88.816574 78.148018 4282598469
-991.30981 88.761734 78.229988 4282533189
-988.93152 89.109184 78.463989 4282664262
-986.17871 88.847961 77.98645 4282729795
-983.75043 88.78846 78.17408 4282664517
-981.27679 88.809814 78.330864 4282861127
-978.7887 88.744644 78.347397 4282861385
-976.34082 88.93663 78.296577 4282795590
-974.7558 89.484619 78.628014 4282926917
-1018.248 92.148163 77.705711 4283123017
-1016.3589 92.297096 77.784912 4282795336
-1014.4221 92.347466 77.702789 4282794569
-1011.6732 92.406898 77.686668 4283188289
-1008.6567 92.375153 77.584435 4282729549
-1006.1256 90.283821 77.541428 4282794824
-1003.3776 90.788734 77.826035 4282598468
-1001.3508 90.90303 77.93808 4282598213
-997.9613 91.254379 77.583862 4282664262
-996.50311 91.132538 77.594398 4282664262
-993.92371 90.611847 77.815758 4282664008
-990.96259 90.929459 78.052902 4282926150
-988.81458 91.125732 78.121834 4282729800
-986.25671 91.315231 77.939522 4282664262
-983.60327 91.137222 78.048088 4282861130
-981.29834 91.077164 78.207085 4282861381
-978.81201 91.168091 78.503181 4283057736
-976.25177 91.187599 78.272621 4283058248
-974.24524 91.613136 78.148285 4282598984
-1017.7429 93.445656 77.89386 4282467905
-1016.2158 93.634575 77.933235 4282467655
-1014.0182 93.746269 77.707832 4282401861
-1011.4534 93.649345 77.763557 4282664260
-1008.6397 93.92215 77.706078 4282663750
-1006.3101 93.638229 78.137108 4282664260
-1004.2823 94.103577 77.837952 4282533188
-1000.7639 94.291138 77.639946 4282664773
-998.68811 94.008881 77.58448 4282533189
-996.46198 93.944572 77.737305 4282664006
-994.02777 94.182335 77.849022 4282730052
-991.57599 94.896751 77.843834 4282991687
-988.25317 93.8395 77.728546 4282861124
-986.32306 93.789658 77.876831 4282664518
-983.46381 93.761642 77.768494 4282795848
-981.4505 93.633659 77.85714 4282861639
-978.66058 93.557259 77.994781 4282730568
-976.53503 93.431175 77.727173 4282992459
-973.84088 93.750534 77.804489 4282861384
-972.3092 94.584663 78.264618 4283058243
-1017.2322 95.316284 77.980286 4282205247
-1014.013 95.269157 77.622192 4282926403
-1007.6885 95.050583 77.825409 4282926662
-1006.5055 96.000748 77.806427 4282860871
-1003.7513 95.820457 77.691628 4282598981
-1001.2145 95.631668 77.708099 4282730309
-998.66687 95.721512 77.724083 4282926406
-996.0434 95.800858 77.953697 4282402375
-993.80908 96.142052 78.066078 4282795078
-991.72015 96.315346 77.824692 4282795335
-988.34863 96.28363 77.782547 4282730059
-986.23346 96.153496 78.065567 4282795849
-983.797 96.256721 77.702728 4282926922
-981.31763 96.295753 78.068054 4282861386
-978.60437 96.562523 77.800354 4282468426
-976.23102 96.549683 77.81118 4283059020
-973.85101 96.297371 77.898781 4283059021
-972.05774 95.945534 78.086777 4283124557
-1014.2609 99.060692 77.779694 4282795077
-1011.8564 99.513153 77.546021 4282795334
-1009.8774 97.946831 77.510925 4283385408
-1006.5522 97.983963 77.746231 4282795591
-1003.8043 98.916092 77.624664 4282533187
-1000.6991 99.585442 77.516464 4282468167
-997.95868 98.491364 77.68026 4282664776
-995.80859 98.298218 77.827286 4282795848
-993.85706 98.624718 77.946777 4282665026
-988.41296 99.495308 77.655624 4282926927
-986.32642 98.479034 77.757462 4282926666
-983.76477 98.651085 77.805786 4282861898
-981.28607 98.786552 78.14241 4283124300
-978.74274 98.832306 77.833588 4283059275
-976.28046 98.496101 77.880325 4283387729
-974.02228 97.968681 77.845123 4283125330
-1014.4558 100.57342 77.864212 4282729542
-1011.6653 100.58606 77.590454 4282795594
-1003.2745 101.08969 77.564987 4282598983
-1001.3323 101.50121 77.546227 4282599240
-999.18774 101.22292 77.732544 4282795846
-993.76099 100.38203 77.831688 4282533701
-990.57782 102.17196 77.764366 4283123275
-988.69489 101.31668 77.634872 4282861896
-986.99292 100.81129 77.666161 4282992969
-983.5119 100.8277 77.664978 4282928205
-981.3927 101.01585 77.878998 4283321422
-979.23828 100.58981 77.815857 4283256139
-1008.408 104.16 77.661591 4282795847
-1007.0742 104.34185 77.622253 4282927940
-1003.1395 103.06094 77.520111 4282599240
-1001.1871 103.49795 77.598442 4282599499
-999.23834 103.44092 77.615494 4282992456
-996.80524 104.34753 77.809174 4283058256
-992.90625 104.8587 77.788086 4282992966
-991.10883 104.04708 77.812363 4282927435
-988.74066 104.09668 77.757797 4283190350
-986.97473 104.25622 77.943314 4283059022
-1006.817 105.08794 77.588135 4282796110
-996.47156 105.37654 77.831253 4282861900
-993.20624 106.38711 77.671005 4283125068
-990.89386 105.68369 77.851852 4283321169
-989.08258 105.42584 77.724152 4283321932
-1002.7261 109.52583 77.537567 4283058251
-1002.4076 109.69582 77.523132 4283320912
-998.83398 109.4002 77.847153 4283321679
-1002.7386 110.00887 77.527649 4283714379
-1002.4241 110.33898 77.509789 4283059537
-999.00897 110.17363 78.03595 4283583824
-995.3147 62.054916 80.04184 4282271053
