# .PCD v0.7 - Point Cloud Data file format
VERSION 0.7
FIELDS x y z rgba
SIZE 4 4 4 4
TYPE F F F U
COUNT 1 1 1 1
WIDTH 1134
HEIGHT 1
VIEWPOINT 0 0 0 1 0 0 0
POINTS 1134
DATA ascii
-916.88562 15.999582 56.322021 4281675045
-920.61823 19.565022 57.088341 4281938212
-918.64819 19.133539 56.667755 4281937442
-917.383 17.598473 55.649048 4282068275
-922.55902 22.337639 57.344421 4281872925
-921.01526 21.230665 56.612511 4282003748
-919.4408 21.017111 56.143871 4282396966
-922.8631 23.782146 56.439785 4281937450
-921.45587 23.616388 56.577648 4282134824
-923.18475 26.167049 56.719891 4282069026
-922.03113 25.629597 56.344036 4282002476
-925.81384 29.802683 57.430313 4282331430
-924.0575 28.624041 56.725437 4282265380
-928.04907 31.849752 56.506859 4282200359
-926.2782 31.452948 56.82822 4282266150
-924.54578 30.46701 56.052647 4282265643
-928.41675 33.955601 57.176907 4281806375
-926.8584 33.585526 56.650871 4281937707
-930.33911 37.044327 56.624146 4282200362
-928.91815 36.288109 56.416943 4282134310
-927.38245 35.516548 56.063705 4282265635
-933.50031 39.687355 57.105297 4282068756
-930.79602 39.076241 56.916538 4281871653
-929.32184 38.422077 56.038872 4281872673
-933.2157 40.448925 56.160515 4281740581
-931.28064 40.763237 56.321678 4282068002
-929.89368 40.315647 55.822296 4282265631
-915.70227 9.7614365 58.550049 4281939231
-913.93872 8.6807365 57.747952 4281937444
-915.94147 11.402981 58.746181 4281872680
-914.38489 10.843925 58.085175 4282002972
-918.48071 14.470765 58.850632 4281936937
-916.38306 13.097342 57.944469 4282069033
-920.23804 17.178787 59.516907 4281217832
-918.81042 16.379358 58.61235 4282002722
-920.54083 18.667938 58.364811 4282069029
-919.21509 18.385334 58.158886 4281937444
-922.95874 22.452271 58.564941 4281544727
-921.82446 22.083725 57.59584 4281741860
-923.78955 23.868725 58.00119 4281741347
-925.20929 26.793322 58.799255 4282068780
-924.31073 26.408274 57.818336 4282068776
-925.70459 28.904955 58.515202 4282266403
-924.2821 27.644693 57.613556 4282069289
-927.91394 30.927372 57.616852 4282135336
-926.13232 30.495047 57.921017 4282265893
-928.96014 33.823692 57.734119 4282133799
-927.16168 33.746552 57.544922 4281807143
-931.06238 37.12019 57.958313 4282003242
-929.5097 35.013367 57.677612 4282068515
-933.21344 39.42458 58.425003 4282200102
-931.48517 38.572086 58.142441 4282199335
-932.61554 40.221748 57.669739 4282200359
-919.21924 14.720535 60.092834 4282199839
-920.70837 17.975155 61.604919 4282069293
-926.20142 27.164757 61.538635 4282200871
-926.33826 28.263561 60.430573 4282331941
-932.71405 38.534119 60.925842 4282397742
-932.0661 37.748947 61.593292 4281806884
-921.17413 18.169189 63.923889 4281937973
-932.78528 38.339523 62.660645 4282265893
-989.07605 7.9111404 67.268311 4284964709
-922.31622 19.597229 66.104736 4281546778
-926.53143 26.44047 66.225609 4282266408
-932.28986 37.359474 66.816162 4281938732
-932.24408 37.590691 65.656982 4281872415
-995.45496 3.7474823 69.650818 4284177498
-994.30664 4.4548063 69.273094 4284308319
-989.01306 7.3369179 69.373779 4284701793
-916.25635 6.609726 68.716026 4282792502
-988.5354 7.6573753 69.179199 4284570979
-916.62476 8.3491554 68.660095 4281739282
-968.29218 18.72439 69.687927 4284767587
-966.94617 19.270226 69.355103 4284832867
-921.80725 18.451729 69.182068 4282529056
-962.6181 22.053734 69.780212 4284505958
-961.97192 22.373817 69.505615 4284833642
-923.81982 22.68119 68.222534 4281478444
-926.87585 26.099899 68.89151 4282661426
-943.47784 34.227505 68.915268 4285228389
-941.99365 34.541367 68.91732 4285162599
-942.99658 35.373688 68.537643 4285097836
-942.08722 35.436066 68.573029 4285163368
-1011.0037 -5.3621345 71.610497 4284111192
-1010.3463 -4.8414588 70.834068 4284372822
-1009.6161 -4.6518402 71.952469 4284111449
-1005.3168 -2.1332104 71.692909 4284241748
-1003.6669 -1.2176895 71.823944 4284372571
-1000.8503 0.42417145 71.858154 4283652697
-998.36029 1.8346786 71.757225 4284242266
-997.13373 2.3817406 72.264587 4284241497
-995.20087 3.5733476 71.406822 4284242785
-993.84625 4.3208385 71.301567 4284308060
-991.67993 5.5194206 71.918396 4284308571
-988.63293 7.2158332 71.602867 4284176988
-988.01691 7.6646271 70.467102 4284570715
-986.8288 8.1712675 71.735123 4284505183
-984.76233 9.2595749 72.175537 4284571235
-981.71698 10.934776 71.752197 4284242774
-979.51538 12.010633 71.998413 4284439136
-978.66669 12.647652 71.685364 4284570715
-975.1261 14.465157 72.408691 4284635989
-974.64758 14.781487 72.17392 4284373598
-919.11389 12.88871 70.146484 4281807152
-972.88446 15.800545 72.075562 4284570717
-968.39343 18.3137 71.50396 4284570976
-966.74731 19.166279 71.400513 4284767068
-963.18359 21.382133 71.337471 4284505690
-961.82019 22.215321 71.10817 4284505955
-960.69922 22.637177 71.747986 4284571488
-959.41296 23.029106 72.07489 4284112225
-954.6098 25.767168 72.030739 4285029216
-950.43872 27.983253 71.743988 4284374877
-948.46533 29.171732 71.682869 4284701792
-927.66455 28.651993 70.277771 4282267185
-943.73181 31.882202 72.063637 4284570971
-929.68665 30.895355 70.550903 4283118895
-942.034 32.777348 72.334839 4284373855
-938.44971 34.843697 71.866791 4284309088
-935.96149 36.297955 72.215111 4284243553
-977.83374 -31.49688 74.377045 4283585620
-972.70508 -28.690895 74.612793 4284045138
-972.22253 -28.516403 74.593201 4283979603
-1010.2729 -21.851547 74.819397 4283847761
-1003.0443 -18.271971 74.651611 4283388242
-984.82507 -18.297169 74.882477 4283125845
-1013.363 -15.760117 74.667313 4283584852
-1013.3731 -14.788063 74.93042 4283978067
-1015.361 -8.1608639 73.733009 4283782225
-1014.513 -7.8008156 74.106056 4283914069
-993.48859 -7.634613 74.957458 4283519826
-988.99353 -7.684824 74.884796 4283519822
-985.25635 -7.7518387 74.838501 4284176469
-1010.9823 -5.7971015 73.659447 4283914075
-1009.76 -5.14468 73.801849 4283782487
-1004.574 -6.4657593 74.955032 4284175184
-995.22839 -6.50701 74.97477 4283519322
-993.51422 -6.6596465 74.924232 4283847506
-989.0119 -6.4574971 74.796646 4283847253
-985.28571 -6.6154456 74.815857 4284241492
-984.97137 -6.121727 74.92379 4284568659
-1008.7635 -4.5570245 73.82325 4283979610
-1005.7007 -3.0411334 74.155815 4284240725
-1004.9235 -2.5082169 74.154053 4284175955
-996.0979 -2.9884377 74.950409 4283978591
-981.00165 -2.6165428 74.899139 4283913042
-1003.4522 -1.5599427 73.796539 4283979094
-1001.8473 -0.73428649 74.038963 4283782233
-981.29382 -2.2238278 74.62146 4283782488
-979.87732 -2.0971146 74.998596 4283455067
-976.30573 -2.1758194 74.91217 4283847511
-1000.2995 0.4025116 73.51651 4283914070
-998.81213 1.1442028 73.74334 4283979865
-996.54089 2.1987832 74.338707 4284110423
-995.67462 2.7990446 73.652084 4284241756
-993.96387 3.5822456 74.111931 4284242009
-992.20209 4.7504883 74.007591 4284110934
-987.91406 4.8053575 74.837418 4284110166
-986.55353 4.8769989 74.750229 4284110425
-983.11871 4.8471069 74.790085 4283913048
-981.51434 4.7381239 74.873886 4284044378
-991.05792 5.4776883 73.892029 4284045655
-988.44086 6.3354673 74.042419 4284045404
-986.68188 5.5774155 74.637856 4284176217
-983.40338 5.4489212 74.630264 4283978843
-981.21112 5.4072785 74.556114 4283979104
-916.57422 5.0008163 74.464722 4283914836
-986.06482 8.2041359 73.778084 4284373593
-983.97284 9.2701769 73.924332 4284373343
-981.20142 10.824238 73.511391 4283849306
-979.12866 11.77174 73.673859 4284307292
-977.83588 12.725706 73.609329 4284308061
-976.43829 13.308289 74.089966 4284111707
-974.18372 14.646009 73.827415 4284307548
-972.97626 15.406257 73.79834 4284504668
-971.43665 16.145836 73.914078 4284176733
-969.02039 17.279327 74.229645 4284372834
-965.27905 16.761301 74.761597 4283979353
-963.7666 16.788527 74.701279 4284044634
-960.41406 16.61681 74.788673 4284044886
-959.92816 16.628929 74.774704 4284044890
-922.06757 17.3475 74.293152 4282333495
-968.28552 17.834703 73.938957 4284242525
-966.22284 18.943783 73.803764 4284439133
-964.75977 19.749352 74.361412 4284308318
-922.92664 18.645996 74.581055 4282005552
-963.21014 20.834078 73.674042 4284373598
-961.31689 21.868717 73.66877 4284374110
-924.3833 21.028105 74.444534 4282596924
-960.06885 22.659157 73.388794 4284243031
-958.92859 22.965691 73.801559 4284373340
-956.11725 24.638664 73.8862 4284046171
-955.58435 25.178596 72.923279 4284308577
-953.90625 25.857548 73.623306 4284505183
-951.68048 26.872671 74.141388 4284242523
-950.46729 27.648232 73.346619 4284045407
-948.55859 28.61294 73.783165 4284439136
-946.75299 29.642508 73.888206 4284439389
-928.5509 29.061813 74.84314 4282659630
-945.85126 30.114126 74.007935 4284504411
-943.68494 31.504995 73.833389 4284570459
-942.11145 32.336842 73.705322 4284505440
-940.98322 33.014145 73.801483 4284504928
-939.1145 33.920612 74.058228 4284308317
-937.25464 34.937683 74.417542 4284571234
-936.37811 35.659687 73.663216 4284374111
-934.1546 36.816055 73.85379 4284110169
-998.30573 -40.951588 76.706276 4283715665
-996.36066 -40.82933 76.917908 4283846995
-994.78851 -40.699875 76.067078 4283781973
-1000.5205 -38.120728 76.975853 4283650388
-998.7439 -38.643993 76.996704 4283584594
-996.28137 -38.68792 77.004768 4283716180
-994.33044 -38.241894 77.121765 4283650643
-990.86755 -38.230671 76.813416 4283651411
-1000.8795 -36.224918 77.052528 4283584848
-998.82367 -36.497921 76.989655 4283519315
-996.39978 -36.492035 76.88987 4283781460
-994.12244 -36.401917 76.982826 4283716435
-991.08124 -36.514759 77.336533 4283781976
-989.24475 -36.888691 77.071114 4283912533
-1003.4266 -33.073437 76.143227 4283453520
-1001.2294 -33.699242 76.442772 4283321937
-998.6629 -33.724674 76.533501 4283453521
-996.26233 -33.709396 76.617889 4283650133
-993.90625 -33.707817 76.57148 4283846994
-991.31281 -33.609135 76.759125 4283781715
-988.85321 -33.387913 76.775383 4283716690
-986.39874 -33.326878 76.907402 4283520082
-983.79773 -33.42981 76.950424 4283846998
-1005.1051 -30.337402 76.489075 4283190869
-1003.5156 -31.087503 76.35984 4283518803
-1001.2953 -31.282322 75.831627 4283322192
-998.771 -31.251816 75.829926 4283519313
-996.16736 -31.242981 75.948013 4283519313
-993.71204 -31.251417 75.678703 4283584851
-991.30664 -31.273535 76.128174 4283715926
-988.68188 -31.307522 75.989235 4283716434
-986.24799 -31.231899 76.606255 4283847255
-983.78741 -31.197788 77.023643 4283585109
-981.25592 -31.046871 76.97303 4283716179
-978.87952 -30.971758 76.516006 4283781716
-976.91077 -30.593029 76.14962 4283978072
-1005.6671 -28.297234 76.68911 4283584339
-1003.6661 -28.660398 76.502762 4283584336
-1001.2538 -28.793692 76.270317 4283518800
-998.82178 -28.735531 76.180809 4283453520
-996.22943 -28.821005 76.16526 4283650388
-993.72253 -28.629017 75.918945 4283453779
-991.28284 -28.758167 75.899979 4283715669
-988.79724 -28.808897 75.742577 4283650646
-986.16748 -28.691214 76.449661 4283781718
-983.77264 -28.739883 76.934654 4283715924
-981.28986 -28.710733 76.790009 4283716181
-978.63574 -28.767059 76.861603 4283716182
-976.45715 -28.509705 76.868881 4283716182
-973.92188 -28.085722 76.440605 4284109656
-972.07294 -27.731974 76.398262 4283848278
-1007.8384 -25.086462 76.430016 4283584602
-1006.1527 -26.161049 76.350151 4283584595
-1003.7317 -26.205616 76.24205 4283518802
-1001.2033 -26.320475 76.419525 4283453009
-998.76056 -26.463737 76.361923 4283453521
-996.23053 -26.321573 76.316841 4283584849
-993.71051 -26.237467 76.246552 4283650386
-991.25653 -26.283714 75.977997 4283584852
-988.80945 -26.292871 76.467392 4283715925
-986.21344 -26.32859 76.435005 4283650390
-983.7265 -26.200289 76.774231 4283584596
-981.26428 -26.32575 76.545799 4283715924
-978.7738 -26.245432 76.686394 4283650645
-976.1803 -26.17227 76.652817 4283781973
-973.75604 -26.146753 76.555336 4283913046
-971.48193 -25.976051 76.420158 4283847509
-968.98334 -25.476013 76.19635 4283716435
-966.82098 -25.241781 75.295425 4283847256
-1008.043 -23.655188 76.038521 4283781459
-1006.2211 -23.763027 76.559074 4283650385
-1003.8287 -23.767626 76.541664 4283518802
-1001.1726 -23.696861 76.868904 4283453776
-998.7326 -23.656675 77.308586 4283584848
-996.34247 -23.715912 77.037544 4283453522
-994.17456 -23.719652 76.866623 4283716179
-991.14465 -23.767647 77.19873 4283519314
-989.50195 -23.838062 77.221611 4283715925
-986.69983 -23.819925 77.342369 4283585363
-983.83478 -24.420923 77.329704 4283454037
-981.03613 -24.847481 76.918083 4283651152
-978.71979 -24.156675 76.877762 4283650902
-976.11774 -24.39905 76.863579 4283716435
-973.5058 -23.799702 77.111259 4283781716
-971.3645 -23.884228 76.975677 4283651157
-968.664 -23.855556 77.025597 4283716438
-966.11182 -23.829437 76.871078 4283781971
-964.32428 -23.296984 77.252365 4283978324
-1010.2614 -20.891481 75.539291 4283846483
-1008.7488 -21.174747 76.415253 4283584597
-1006.2257 -21.220591 76.833344 4283584850
-1003.8064 -21.241451 76.674957 4283584592
-1001.3102 -21.195345 76.55117 4283453518
-998.66278 -21.264839 76.782265 4283781201
-996.30371 -21.165546 77.09626 4283519059
-993.85754 -20.984251 77.080185 4283584850
-991.12653 -21.00976 77.131111 4283584850
-988.85925 -21.041185 77.003899 4283650387
-986.38873 -21.134731 77.04039 4283585106
-983.69788 -21.005383 76.774963 4283715925
-981.28662 -20.995798 77.03318 4283585108
-978.90698 -21.133598 77.005005 4283716180
-976.41833 -20.977299 77.007309 4283584853
-973.30389 -21.232597 77.086655 4283781717
-971.3783 -21.213444 77.182281 4283781973
-969.14355 -21.938528 77.41861 4283650904
-964.30615 -21.335815 77.33136 4283650388
-960.73267 -21.612717 76.424103 4283978323
-958.66473 -20.419987 76.88192 4283847766
-1010.8408 -18.524786 76.149872 4283650388
-1008.7286 -18.808676 75.980888 4283584853
-1006.2418 -18.813097 75.652496 4283650387
-1003.7039 -18.79225 75.720566 4283584592
-1001.2203 -18.831926 75.737297 4283584337
-998.79364 -18.82773 75.843826 4283584853
-996.1842 -18.724449 76.24733 4283453522
-993.76587 -18.742107 75.948494 4283715922
-991.29889 -18.727654 75.985252 4283584851
-988.66577 -18.77002 75.961296 4283716178
-986.27026 -18.77356 75.652672 4283781460
-983.75458 -18.813482 75.901161 4283584595
-981.23322 -18.780544 76.080475 4283650642
-978.74731 -18.709606 76.469215 4283584852
-976.28961 -18.760771 76.348854 4283781715
-973.77252 -18.612846 76.665329 4283781973
-971.06372 -18.695827 76.694786 4283913047
-968.80396 -18.318085 76.834351 4283715924
-966.26508 -18.316139 76.883926 4283716184
-963.68262 -18.478806 76.563026 4283650647
-961.203 -18.436728 76.426079 4283585365
-958.75208 -18.685593 76.656776 4283847251
-956.29639 -17.982285 76.421745 4283781203
-954.46521 -17.840021 76.998222 4283519830
-1012.9107 -15.807651 76.025421 4283847251
-1011.1647 -16.312218 76.007187 4283650388
-1008.75 -16.316393 76.021484 4283715923
-1006.2704 -16.274815 76.439125 4283781459
-1003.707 -16.234661 76.604294 4283584596
-1001.2481 -16.182329 76.503197 4283518802
-998.76526 -16.154421 76.38459 4283453780
-996.24683 -16.200235 76.378456 4283519315
-993.76569 -16.151474 76.641731 4283650388
-991.35223 -16.173447 76.824905 4283781460
-988.7782 -16.16906 77.008858 4283715922
-986.0968 -16.154835 76.554375 4283716177
-983.66901 -16.245295 76.51796 4283519316
-981.30164 -16.13014 76.689293 4283650645
-978.65271 -16.235046 76.870445 4283650386
-976.42841 -16.379929 76.673889 4283781715
-973.72601 -16.308504 76.728035 4283913046
-971.27722 -16.329556 76.736168 4283716182
-968.66571 -16.088764 77.065598 4283715925
-966.3573 -16.198479 76.907875 4283650645
-963.73907 -16.192148 76.787338 4283716437
-961.20007 -16.299805 76.665672 4283650643
-958.66705 -16.278492 76.847237 4283847510
-956.33203 -16.423342 76.763565 4283650646
-953.75061 -16.414648 77.05825 4283781974
-951.97314 -16.020399 77.035904 4283913298
-1015.0158 -13.051921 75.453247 4283848014
-1013.5403 -13.503361 76.339195 4283912785
-1011.1935 -13.788183 76.679588 4283781715
-1008.727 -13.726271 76.82502 4283847250
-1006.3759 -13.852918 76.842125 4283846995
-1003.7503 -13.958147 76.872757 4283715923
-1001.3321 -13.867636 76.593529 4283584594
-998.82507 -13.78247 76.491028 4283585109
-996.22375 -13.735829 76.506416 4283585109
-993.71631 -13.666852 76.837448 4283847252
-991.30603 -13.758082 76.60347 4283585108
-988.75757 -13.723525 76.78968 4283781716
-986.35315 -13.827628 76.579796 4283781973
-983.62921 -13.780149 76.778694 4283650898
-981.31482 -13.760747 77.043869 4283716179
-978.79565 -13.682631 77.210899 4283716182
-976.59894 -13.505095 77.217216 4283650645
-973.67603 -13.975037 76.999252 4283978582
-971.29462 -13.854631 76.944641 4283781718
-968.70569 -13.826354 76.644585 4283716437
-966.43811 -13.869235 76.652214 4283847508
-963.65802 -13.930009 76.667587 4283913301
-961.26514 -13.686921 77.1884 4283716437
-958.52515 -13.740336 77.137352 4283847512
-956.65393 -13.909415 77.221024 4283912790
-953.89569 -13.935312 77.396332 4283978579
-951.82245 -13.748999 77.118736 4283848020
-948.52606 -13.60509 76.97039 4283782229
-946.41907 -13.102341 77.226364 4283847766
-1015.3644 -10.807775 76.041672 4283912531
-1013.7283 -11.16326 76.06514 4283650896
-1011.251 -11.272547 76.637436 4283781970
-1008.6835 -11.248258 76.522583 4283650643
-1006.2325 -11.230332 76.583611 4283650390
-1003.9268 -11.142891 76.760567 4283650643
-1001.1571 -11.186384 76.483444 4283715921
-998.70056 -11.228136 76.690781 4283650641
-996.32056 -11.247887 76.722336 4283781715
-993.77203 -11.29512 76.49189 4283716180
-991.2157 -11.252644 76.661995 4283716435
-988.81281 -11.267532 76.573135 4283716181
-986.24695 -11.062454 76.235565 4283650902
-983.8125 -10.990104 76.852966 4283716177
-981.22363 -10.929544 76.903198 4283715925
-978.80267 -11.024368 76.959229 4283650643
-976.25671 -11.089754 76.992325 4283715925
-973.55298 -10.668491 76.873634 4283716437
-971.28143 -11.148498 76.97963 4283781716
-968.66034 -11.25168 76.935448 4283519827
-966.44446 -10.666803 77.099228 4283585365
-963.9209 -10.454807 76.94693 4283781970
-960.96454 -10.96018 77.35434 4283781720
-959.09827 -11.021684 77.298691 4283651158
-956.03662 -11.098529 77.224022 4283781973
-953.70557 -11.205145 77.196671 4283978837
-951.35876 -11.261598 77.133781 4283847766
-948.81366 -11.372368 77.077415 4283847509
-946.45813 -11.421993 77.230667 4283847510
-943.66693 -10.298687 77.00264 4283847250
-941.65894 -10.473986 77.059174 4283847766
-1015.4265 -9.2207794 76.044395 4283978836
-1013.7617 -8.7684822 75.903183 4283978837
-1011.3454 -8.7071056 76.328064 4283913044
-1008.7423 -8.6782618 76.247192 4283782228
-1006.2112 -8.7321453 76.135597 4283847252
-1003.7797 -8.7753496 76.052727 4283781459
-1001.3209 -8.7703533 75.805183 4283781715
-998.68115 -8.7891083 75.937538 4283847252
-996.23029 -8.7457657 75.930443 4283781972
-993.76074 -8.8664865 76.202606 4283650645
-991.1994 -8.8023081 76.438904 4283716439
-988.71783 -8.745595 76.342598 4283716435
-986.29987 -8.825613 75.898544 4283913300
-983.71582 -8.7252903 76.260132 4283912532
-981.18878 -8.7475424 76.15696 4283716438
-978.77216 -8.8091116 76.041695 4283913043
-976.29065 -8.7500267 75.972359 4283584852
-973.71869 -8.7227545 75.972572 4283781972
-971.25928 -8.8032513 75.858017 4283847253
-968.83344 -8.8524904 75.9692 4283781460
-966.25031 -8.7983189 76.43766 4283847508
-963.65314 -8.8237896 76.251801 4283913044
-961.26953 -8.9248371 76.521835 4283781971
-958.79669 -8.8546686 76.252266 4283847511
-956.20862 -8.7764635 76.160309 4283716435
-953.73541 -8.7039356 75.966125 4283847509
-951.2821 -8.8021975 76.018776 4283716696
-948.81488 -8.7845964 76.278427 4283913045
-946.19031 -8.7392387 76.46106 4283781971
-943.76898 -8.6615839 76.485817 4283781717
-941.42371 -8.6982861 76.696526 4283978583
-938.82501 -8.0872669 77.010986 4283847252
-936.58112 -7.9023147 76.492104 4283781973
-1013.2012 -7.468287 75.458275 4283848786
-1010.9249 -6.7641602 76.08493 4283716950
-1008.7692 -6.2196026 75.86364 4283782227
-1006.2131 -6.3716736 75.785873 4283913044
-1003.4607 -6.191679 76.005844 4283716180
-1001.2116 -6.253778 75.450081 4283716182
-998.79468 -6.2867384 75.379707 4283781970
-996.25665 -6.3425155 75.327171 4283716436
-993.82434 -6.2412424 75.597359 4283781970
-991.28467 -6.325326 75.567406 4283650644
-988.60223 -6.2766118 75.552528 4283781973
-986.42419 -6.2674532 76.2024 4284044374
-983.73889 -6.2837281 75.956032 4283781718
-981.18481 -6.206728 76.245247 4283847253
-978.79688 -6.2406492 76.152405 4283716181
-976.3219 -6.2532387 75.517113 4283716180
-973.74957 -6.2675982 75.681259 4283781715
-971.13672 -6.2701626 76.19014 4283716437
-968.73975 -6.2176218 76.391777 4283715924
-966.32947 -6.257978 76.767342 4283781972
-963.72223 -6.2596645 77.028137 4283847510
-961.22906 -6.2211661 76.518028 4283715922
-958.80237 -6.330596 75.884995 4283782484
-956.29028 -6.3561959 76.07486 4283782228
-953.672 -6.3013735 75.941269 4283782228
-951.25696 -6.2124567 75.967758 4283847510
-948.79468 -6.2158523 76.123711 4283781972
-946.28937 -6.2418494 76.231674 4283781715
-943.68237 -6.2494054 76.180923 4283650900
-941.25464 -6.3840199 76.11393 4283781718
-938.85083 -6.3066335 76.428963 4283847765
-936.21521 -6.2283192 76.334129 4283913045
-934.2182 -6.1155472 76.510956 4284109911
-1008.066 -4.6610208 75.465141 4283651415
-1006.1154 -4.3268857 75.870522 4284175443
-1003.677 -3.7580583 76.000671 4283781972
-1001.2302 -3.7758472 75.751549 4283585107
-998.79004 -3.7236826 75.50161 4283978836
-996.21698 -3.8083093 75.823952 4283782232
-993.758 -3.7322452 75.74276 4283716438
-991.32471 -3.7104268 75.884315 4283913047
-988.76733 -3.7540901 76.276848 4283781975
-986.18097 -3.744874 76.196884 4283913047
-983.78192 -3.8535595 75.727768 4283716691
-981.29883 -3.8021805 75.452675 4283781718
-978.65289 -3.7776439 75.647224 4283716179
-976.29871 -3.7049348 75.462143 4283716182
-973.81757 -3.7850783 75.835594 4283781973
-971.23352 -3.7135286 76.232414 4283716180
-968.74304 -3.7038927 76.135902 4283781716
-966.27161 -3.7659049 76.830544 4283716181
-963.78528 -3.7778602 76.462715 4283716438
-961.21741 -3.763685 76.431648 4283716436
-958.76215 -3.6870506 76.102196 4283781974
-956.31293 -3.8113842 76.883957 4283781719
-953.77228 -3.7346323 76.847504 4283781974
-951.17999 -3.6756248 76.814873 4283782232
-948.75128 -3.6906908 76.920784 4283716438
-946.29761 -3.6920183 77.026878 4283716180
-943.64862 -3.8091042 76.923485 4283847505
-941.17194 -3.7650552 76.740501 4283651157
-938.80933 -3.6804795 76.599251 4283716696
-936.37891 -3.6786034 76.651871 4283848021
-933.76447 -3.6862726 76.873497 4283978581
-931.21765 -3.5108645 76.636948 4283913046
-929.01727 -3.3617523 76.261322 4284044372
-927.29797 -2.6619415 76.470642 4284242004
-1002.9488 -1.9712566 75.765144 4284240467
-1001.1606 -1.4933554 76.049042 4283781974
-998.81842 -1.1418607 76.814835 4283913559
-996.29633 -1.1788381 76.268852 4283978838
-993.65631 -1.1902944 76.652878 4283848021
-991.22791 -1.1292394 76.567101 4283913302
-988.76971 -1.1422787 76.611595 4283978839
-986.23206 -1.22043 76.533531 4283847508
-983.77185 -1.2794551 76.309929 4283716435
-981.3645 -0.98915154 76.214447 4283847768
-978.72919 -1.1453508 76.407021 4283716693
-976.1319 -1.1657833 76.110924 4283781972
-973.70337 -1.3380752 76.248917 4283913044
-971.43365 -1.4128909 76.2435 4283585107
-968.45245 -1.5204853 76.330482 4283912534
-966.1651 -1.2741627 77.012619 4283585108
-963.80737 -1.3576213 76.631035 4283847508
-961.44727 -1.3921204 77.099998 4283716438
-958.58734 -1.8467062 76.743591 4284044375
-956.23944 -1.8667861 76.949409 4283913559
-953.71844 -1.5452114 77.002953 4283913301
-951.37982 -1.4470749 76.962402 4283847765
-948.78522 -1.3106251 76.980705 4283650646
-946.29572 -1.9593478 76.742271 4283781718
-943.73383 -1.7602423 76.817833 4283453777
-941.39209 -1.7968546 76.993843 4284044116
-938.6499 -1.7788239 76.787971 4283651158
-936.28827 -1.7969468 76.787842 4283913047
-933.79559 -1.8038454 76.933182 4283913302
-931.12994 -1.7165756 76.464172 4283716694
-928.7395 -1.6488675 76.245819 4283716693
-926.56903 -1.3821913 76.10862 4284044373
-924.16931 -1.0996253 76.305748 4283979095
-1000.0706 0.035049438 75.076111 4283717721
-998.3877 0.59555656 75.979271 4283979351
-996.20337 1.0549942 75.835381 4283847509
-993.73303 1.1386968 76.03273 4284044886
-991.19415 1.2448566 76.069023 4283979095
-988.80017 1.212795 76.531555 4283913302
-986.24237 1.2715782 76.52047 4283913304
-983.72443 1.2504333 76.52684 4283847766
-981.26678 1.1203676 75.98513 4283782231
-978.81201 1.309141 76.458359 4283781973
-976.224 1.3460702 76.092216 4283781973
-973.76508 1.3784475 76.274292 4283716438
-971.35205 1.2443961 76.520416 4283781976
-968.71112 1.4593264 76.851463 4283847509
-966.14093 1.3912079 76.943771 4283716182
-963.78418 1.2712368 76.975227 4283716438
-961.5014 1.3426415 76.907944 4283519832
-958.76923 2.108598 77.079269 4283716436
-956.03644 1.6004959 76.913704 4283716437
-953.80157 1.494688 77.039467 4283781975
-951.32581 1.6952927 77.045761 4283847512
-948.83557 1.3891532 77.114853 4283847256
-946.29553 1.8259724 77.052208 4283781715
-943.99274 2.0178893 76.935852 4283716441
-941.08826 1.7648388 76.864975 4283781973
-938.76971 2.0293911 77.169838 4283716437
-936.32599 2.0151458 77.153625 4283716439
-933.74713 2.1635377 77.101547 4284109655
-931.33032 2.2195606 77.11705 4283978833
-928.7561 2.3588896 77.152428 4283847509
-926.04498 2.3557599 77.269814 4283913558
-923.90009 2.37743 77.249283 4283913815
-921.3241 2.2693455 77.179893 4284109912
-919.05902 2.3131001 76.695892 4284175960
-995.24438 2.5149765 75.503784 4284438617
-993.4032 3.0227485 75.657028 4283913816
-991.1781 3.6922276 75.861549 4283979096
-988.74487 3.6950722 75.811172 4284110167
-986.29199 3.6120055 75.663162 4283716953
-983.75787 3.6721187 75.675774 4283716695
-981.17004 3.5953369 75.488838 4283978839
-978.76562 3.7768769 75.736374 4283847765
-976.33362 3.8283243 75.786934 4283847511
-973.65204 3.7574227 75.829826 4283781976
-971.2655 3.7728069 75.683044 4283847512
-968.83679 3.8260293 75.987595 4283847255
-966.26373 3.7501616 75.945564 4283847253
-963.65186 3.7846391 76.009209 4283781974
-961.26813 3.6759183 75.979713 4283847511
-958.76233 3.7816978 76.517365 4283782229
-956.17743 3.8060005 76.178062 4283847765
-953.73907 3.7775269 76.352432 4283847508
-951.28986 3.6986115 76.441742 4283847768
-948.77484 3.763412 76.189423 4283847767
-946.27246 3.82286 76.278259 4283781717
-943.7467 3.7965863 76.577744 4283650644
-941.24347 3.7774718 76.553421 4283913046
-938.76227 3.7551236 76.344002 4283781973
-936.13806 3.7177837 76.223091 4283650903
-933.76819 3.7006378 76.381866 4283978839
-931.33148 3.7436626 76.639435 4283913047
-928.77417 3.8216069 76.716965 4283847510
-926.21594 3.7548785 76.794044 4283978582
-923.70422 3.780998 76.88102 4283913560
-921.328 3.6892264 76.901855 4284109913
-918.81506 3.8302829 76.881638 4284044631
-916.93951 4.0193563 76.803688 4283979352
-990.3175 5.3759909 75.774376 4283717210
-988.57227 5.822782 75.484207 4284044888
-986.17401 6.4638586 75.994408 4284110169
-984.03271 6.386065 76.725082 4283978839
-981.30121 6.4068713 76.52787 4283782487
-978.73578 6.2911444 76.31353 4283782486
-976.25867 6.2145576 76.320465 4284109913
-973.81757 6.2221131 76.311768 4283847767
-971.12335 6.2321749 76.302437 4283847766
-968.75739 6.2231269 76.00071 4283847765
-966.289 6.2002816 75.917625 4283782227
-963.75891 6.167995 75.9011 4283912792
-961.1897 6.1853156 75.849869 4283979094
-958.83203 6.1624298 76.446373 4283913045
-956.30225 6.3269973 76.306633 4283716439
-953.64374 6.2297482 76.303123 4283847767
-951.23859 6.2263622 76.12719 4283913303
-948.80676 6.1278629 75.795082 4283716693
-946.2066 6.1900039 75.99704 4283650901
-943.74194 6.1752415 76.532455 4283781716
-941.224 6.1749058 76.563225 4283781717
-938.83417 6.2477064 76.420975 4283781716
-936.24677 6.278924 76.365402 4283847765
-933.59991 6.2313485 76.281395 4283782230
-931.12128 6.2303815 76.49456 4283913302
-928.84625 6.0972743 76.414772 4283782232
-926.41797 5.8634291 76.443184 4283847511
-923.88519 5.96246 76.913452 4283979096
-920.85382 5.5077491 77.438995 4283913558
-918.72278 5.5758309 77.375137 4283979095
-917.29883 6.0616174 76.82267 4284110683
-985.68414 7.8786459 75.681099 4284110431
-983.71802 8.3595209 76.57914 4283979609
-981.36206 8.783082 76.672012 4284044889
-978.63873 8.7864885 76.804665 4284044634
-976.20703 8.6430464 76.747726 4283913560
-973.7962 8.6974545 76.719856 4283979351
-971.22644 8.7595739 77.035347 4283782487
-968.77832 8.8254509 76.752174 4283913304
-966.31549 8.7264318 76.729942 4283913045
-963.74097 8.6667442 76.448685 4283847769
-961.19818 8.6769409 76.614265 4283913301
-958.75244 8.7709579 76.630585 4283782230
-956.33093 8.7660866 76.521133 4283782231
-953.77972 8.6944122 76.83699 4283847767
-951.1734 8.7295666 76.781303 4283979095
-948.74213 8.7842722 76.965332 4283978837
-946.32935 8.7323866 76.78772 4283847508
-943.79633 8.7834549 76.816879 4283781463
-941.20563 8.8094816 76.892647 4283847253
-938.70923 8.7689438 77.107765 4283847510
-936.64929 8.6260357 77.304214 4283913046
-933.13831 8.5761795 77.186302 4284044632
-930.05176 8.46626 77.23391 4284044620
-929.56189 8.2360096 77.232605 4283848025
-925.87054 9.0545244 77.100861 4283847767
-922.79352 9.6542006 77.493591 4283848535
-921.2254 9.3173122 77.447044 4283848281
-918.79926 9.3795338 77.239059 4283715410
-917.47461 8.2914143 77.125122 4282859589
-980.94019 10.353247 75.940979 4284110684
-978.44873 10.950311 76.50795 4284241241
-976.2207 11.272841 77.018333 4283979610
-973.78516 11.222798 77.012283 4284044888
-971.2959 11.325216 76.930626 4283848024
-968.70563 11.240953 77.294853 4283913558
-966.24927 11.18415 77.180351 4283848023
-963.57471 11.179793 76.973045 4283913557
-961.0625 11.239849 77.067284 4283716438
-958.61127 11.356175 76.998955 4283848023
-956.41962 11.351701 77.018425 4283913301
-953.81372 11.262827 77.292526 4283782229
-951.33276 11.258108 77.229073 4283847767
-949.00635 10.559939 77.242531 4283519831
-945.85999 11.240068 77.399948 4283847250
-943.59381 11.174109 77.232658 4283716437
-941.79559 10.801121 77.157501 4283847765
-939.11255 10.111221 76.892212 4284110165
-936.09045 10.920905 77.302666 4283782232
-933.15503 10.004402 77.223175 4284045657
-931.88434 11.052498 77.211891 4283913563
-925.89642 10.185478 77.014503 4283716956
-922.8584 10.082989 77.486908 4283716696
-921.18719 10.249439 77.42646 4284110167
-919.0816 10.675205 76.717529 4283255115
-975.89032 12.918991 75.977005 4284242008
-973.65582 13.710226 76.319962 4284110938
-971.33575 13.809237 76.547089 4283914072
-968.81531 13.680818 76.933937 4283979609
-966.19482 13.822089 77.112953 4283979352
-963.72302 13.850753 76.937035 4283979351
-961.29474 13.81905 76.795822 4283979353
-958.75732 13.7301 76.836716 4283717207
-956.08997 13.775176 76.977615 4283978839
-953.67334 13.909845 76.95137 4283979351
-951.36029 13.914511 77.069656 4283913304
-948.78247 14.139329 77.118698 4283781972
-946.15088 13.745073 77.0709 4283716437
-943.73651 13.769766 77.180931 4283781972
-941.37946 13.940367 77.256393 4283978837
-938.90344 13.912709 77.251099 4283716436
-935.31659 13.995281 77.156471 4283782229
-933.99896 14.301455 77.169052 4283848023
-931.38947 14.22372 77.154411 4283913300
-929.25537 14.890117 77.211075 4283913814
-927.21283 14.933988 77.156578 4283847769
-923.94647 14.737988 77.428024 4283586384
-919.84839 13.163017 76.916168 4282596403
-972.69458 15.176468 75.279205 4284307552
-971.05334 15.553155 75.868629 4284110941
-968.74835 16.076019 76.06794 4284110683
-966.3067 16.189108 76.002632 4283979866
-963.6546 16.126051 75.611336 4284110425
-961.37518 16.208458 75.739967 4283914072
-958.7016 16.155169 75.960449 4283913560
-956.21631 16.247614 76.237404 4283913560
-953.74164 16.29372 75.911934 4284110425
-951.35297 16.171076 75.973572 4283848025
-948.7749 16.240444 75.999161 4283979096
-946.18945 16.164051 76.082085 4283913302
-943.78461 16.251156 76.418098 4283912790
-941.30664 16.15929 76.497406 4283847768
-938.77155 16.109476 76.466393 4283913559
-936.18671 16.231291 76.521202 4283848023
-933.77771 16.266973 76.436646 4283782233
-931.34705 16.305386 76.30822 4283847510
-928.76349 16.369576 76.226959 4283913303
-926.19049 16.305504 76.411514 4283978838
-923.75183 16.211031 76.508118 4283848025
-922.01135 16.153055 76.276604 4283189317
-967.73413 17.610779 75.411194 4284111443
-965.93298 18.220026 75.840355 4284110681
-963.70197 18.785959 76.258774 4284241755
-961.21082 18.84981 76.008301 4284176218
-958.77374 18.713169 75.997574 4284044888
-956.28198 18.811924 76.15255 4284044889
-953.70959 18.79063 76.231644 4283979353
-951.20874 18.698109 76.325897 4284044887
-948.80902 18.682383 76.263359 4284044632
-946.26361 18.786228 76.266556 4283848023
-943.64642 18.800888 76.35215 4283913814
-941.28644 18.722818 76.510536 4284044632
-938.84088 18.731571 76.458557 4283913815
-936.25708 18.786009 76.381645 4283979096
-933.73462 18.756014 76.657692 4283848024
-931.31854 18.806202 76.778984 4283848026
-928.84094 18.819265 76.47155 4283913557
-926.23645 18.87711 76.609306 4283979095
-924.10229 18.637657 76.499916 4283781973
-922.4541 17.758049 75.220154 4282792501
-963.07556 20.26524 75.616356 4284307290
-961.03076 20.796869 76.036636 4284307546
-958.70007 21.232676 76.104462 4284110682
-956.42731 20.821684 75.801193 4284110681
-953.59827 20.904892 76.271484 4283979866
-951.12604 20.614872 76.348267 4283979608
-948.61316 20.919807 76.454247 4284044887
-946.39661 21.187399 76.605171 4283782490
-943.75226 21.291973 76.481674 4283847768
-941.36603 21.098585 76.296333 4283979099
-938.638 20.976231 76.246536 4283848279
-936.22498 20.923664 76.269905 4284044887
-933.77734 21.035891 76.582657 4284175704
-931.06531 20.923449 76.348038 4283979097
-928.60498 21.168797 76.297806 4283847766
-926.33624 21.270704 76.297974 4283913302
-924.59802 20.311157 75.385948 4283716438
-958.06598 22.894091 76.162064 4284111195
-956.32904 23.596331 76.542961 4284241756
-953.78888 24.134394 76.960808 4284307545
-951.53455 24.71917 77.439659 4283979866
-948.59991 23.881758 77.262978 4283914072
-946.43781 23.790598 77.224739 4284044892
-943.83698 23.706528 77.146278 4283979353
-941.58636 23.471249 76.80674 4283848024
-938.17609 23.265041 77.035324 4284044375
-936.55212 22.679157 77.139709 4283849054
-933.56299 24.993359 77.416504 4283979355
-930.92371 23.480099 77.347931 4284044894
-928.14325 23.592077 76.9487 4283979350
-926.43744 23.430521 76.914894 4283584588
-953.50232 25.459229 75.977493 4284111709
-951.22327 25.983051 76.8293 4284242010
-948.7428 26.259466 76.984871 4284110682
-946.1557 26.296375 76.867592 4283913817
-943.7699 26.267221 76.806709 4283979608
-941.26611 26.516537 76.996567 4283979611
-938.84644 26.393677 76.92849 4283913561
-936.2782 26.692469 76.896713 4283979356
-933.72723 26.617746 76.849976 4284045148
-931.43182 27.021849 77.24604 4283848278
-928.88031 26.233522 76.933517 4283783003
-927.23828 26.279007 75.906067 4283186488
-948.3139 27.955582 75.944565 4284176474
-946.06293 28.609158 75.848839 4284176473
-943.703 28.740494 76.085014 4284045402
-941.36993 28.580284 76.461342 4284176217
-938.84875 28.534346 76.356812 4284045403
-936.15405 28.724098 76.243523 4284110428
-933.7226 28.757364 76.230179 4284110681
-931.31366 28.683868 76.61898 4284110426
-929.30298 28.521595 76.15052 4283781714
-945.08624 30.26635 75.376831 4284307296
-943.38757 30.703915 76.22625 4284242267
-941.19952 31.678349 76.634789 4284045402
-939.00317 31.793068 77.005257 4284242265
-935.54901 31.241928 77.09816 4284045913
-934.3576 31.179409 77.073608 4284177245
-931.4679 31.158461 76.782455 4284175706
-929.85242 30.540264 76.902634 4283451203
-940.41162 32.773697 75.364479 4284438878
-938.71106 33.235764 76.161491 4284176474
-936.43982 33.90258 77.041145 4284307547
-933.62048 33.849316 77.021767 4284176474
-932.07196 33.540081 77.066002 4284044373
-935.93518 35.270988 75.932297 4284111450
-933.73608 35.915405 76.800194 4284109655
-932.32208 35.526726 75.823936 4283187010
-997.63733 -41.669167 77.539917 4283978320
-996.67902 -41.06813 77.548889 4283847506
-1000.3266 -37.813667 77.62027 4283781973
-998.12183 -39.505032 77.607506 4283650646
-996.11298 -39.815346 77.632965 4283715668
-993.33051 -38.274807 77.995552 4283781969
-991.64709 -37.96143 78.353355 4283716182
-989.77576 -37.548241 78.315308 4283716439
-1000.6215 -35.825455 77.575073 4283519058
-998.68164 -35.875938 77.967392 4283453779
-995.98584 -35.89547 77.921951 4283846734
-993.01715 -36.12027 77.788513 4283847251
-991.3584 -36.103455 77.964027 4283781717
-989.21704 -35.820679 78.003258 4283781463
-986.26941 -35.117142 78.585197 4283846997
-998.61115 -34.668118 77.89666 4283846996
-996.02197 -34.603107 77.807045 4283650131
-993.22278 -34.652229 77.869865 4283781204
-990.69501 -34.56826 77.898239 4283781708
-988.45422 -34.496391 77.795532 4283781971
-986.24615 -34.408371 78.146675 4283847508
-984.62396 -34.5895 77.895988 4283650644
-1001.3085 -24.205353 77.814392 4283846477
-998.82721 -24.142805 77.728516 4283388240
-997.42407 -24.107506 77.703094 4283978325
-992.90057 -23.646067 78.15947 4283585105
-991.36688 -23.478985 78.13298 4283584849
-988.24445 -23.647686 78.072159 4283716179
-985.86005 -23.58543 78.103073 4283715924
-983.58881 -23.461153 78.032288 4283716181
-981.27527 -23.488567 78.022324 4283585107
-978.89319 -23.369221 77.880531 4283781717
-976.28839 -23.130371 77.681198 4283781715
-974.0174 -23.042536 77.573654 4283716435
-971.02295 -23.081505 77.567062 4283454292
-969.23242 -22.972204 77.696762 4283913300
-966.5271 -23.086166 77.987038 4283978066
-964.5882 -23.011881 77.735023 4283913296
-995.35272 -21.56138 77.566017 4283388501
-993.33337 -21.932417 77.734688 4283519319
-991.44061 -22.156698 77.841187 4283912532
-988.31726 -22.134287 77.748192 4283912788
-985.66571 -22.187561 77.799698 4283649877
-983.82928 -22.171036 77.811089 4283846998
-981.05951 -21.707127 77.796295 4283519570
-978.58447 -21.598083 77.767441 4283716181
-976.24402 -21.500248 77.710007 4283716178
-974.16058 -21.314901 77.691948 4283912536
-971.17896 -21.404392 77.703339 4283912792
-968.73749 -21.125443 78.037277 4283716184
-966.25317 -21.169117 77.930771 4283913044
-963.79895 -20.990664 77.874161 4283781717
-961.35144 -20.731981 77.919319 4283585367
-959.51526 -20.513906 77.9216 4283716180
-980.36517 -19.785042 77.524353 4283323727
-978.26135 -19.73317 77.579102 4283453782
-976.01605 -19.792002 77.714745 4283912791
-974.03638 -19.802111 77.686661 4283978587
-972.11548 -19.577074 77.753471 4283388760
-968.75073 -19.495981 78.004791 4283585365
-966.42627 -19.464199 77.809647 4283650902
-963.70361 -19.697836 77.645508 4283716182
-961.27734 -19.739429 77.586143 4283716438
-959.27368 -19.637596 78.01368 4283978840
-990.15625 -16.636738 77.781372 4284043859
-988.50012 -16.512161 77.750969 4283781714
-984.35297 -15.681274 77.681114 4283323480
-980.90259 -15.59357 77.614113 4283322704
-978.71381 -15.536586 77.741013 4283715663
-975.61719 -15.455434 77.903786 4283781457
-974.9707 -15.439204 77.881447 4283584598
-970.92651 -15.500481 77.747108 4283847254
-965.26416 -15.640604 77.758362 4283585109
-964.94403 -15.510246 77.706886 4283913556
-961.21582 -15.273373 77.800354 4283715668
-959.29169 -15.372692 77.726723 4283912278
-956.03723 -15.259374 78.107948 4283650900
-953.81317 -15.073387 78.057312 4283520343
-952.35358 -15.077339 77.71405 4283587157
-1005.6505 -12.813347 77.726929 4283780953
-1003.385 -12.756436 77.648529 4283388757
-1001.0872 -12.698748 77.569008 4283519572
-999.82495 -12.666775 77.525299 4284108120
-985.62347 -13.525321 77.610382 4283650391
-984.24127 -13.803674 77.542152 4283584854
-982.48737 -12.717773 77.578003 4283847503
-978.4494 -13.555059 77.787834 4283715668
-975.49829 -13.836929 77.735115 4283847509
-974.45581 -13.127896 77.755531 4283781975
-971.32062 -12.7616 77.686646 4284110168
-965.50854 -13.450345 77.559517 4283716180
-964.97656 -14.218428 77.523483 4283650899
-961.34827 -13.803823 77.785477 4283584853
-959.81763 -13.81894 77.815178 4283453780
-955.84186 -13.611251 78.010071 4283912786
-953.85071 -13.674072 78.095467 4283781973
-950.84534 -13.616172 78.061081 4283847766
-948.9173 -13.695292 77.657021 4283782231
-947.112 -13.649953 77.509193 4283848017
-1005.6588 -12.489735 77.720459 4283781724
-1003.1389 -12.232158 77.643173 4283388245
-1001.4316 -12.244835 77.581238 4283585106
-999.758 -12.098377 77.528656 4283977558
-986.22357 -12.07133 77.786743 4283782234
-983.35974 -12.073336 77.650269 4284043863
-981.4129 -12.077034 77.586479 4283781462
-978.78253 -11.885603 77.858932 4283781717
-975.95441 -11.826527 77.727905 4283781972
-973.84003 -11.785344 77.871101 4283847253
-971.46643 -11.795159 77.777679 4283847768
-969.83722 -11.754004 77.709541 4283781974
-965.98389 -11.588371 77.867661 4283716693
-963.73865 -11.585426 77.91758 4283585620
-961.64331 -11.599396 77.905136 4283781718
-958.27588 -11.565774 78.046539 4283978580
-956.54932 -11.541805 78.080002 4283650645
-953.91864 -11.586913 77.853767 4283978838
-951.10669 -11.344906 77.754509 4283847765
-948.62079 -11.21841 77.908943 4283848023
-946.05579 -10.812252 77.806694 4283650647
-943.7915 -10.888255 77.649681 4283651411
-941.17444 -10.527946 77.676514 4283912786
-948.29376 -9.7578354 77.638306 4283192914
-943.76569 -9.980278 77.525513 4284044371
-940.43494 -9.1504164 77.629379 4283913302
-939.44067 -8.8686256 77.582245 4283848020
-938.4043 -5.3117981 77.538391 4283585115
-949.10199 -3.476476 77.536018 4283651160
-944.76495 -2.8847644 77.70507 4283454804
-938.25562 -4.8226528 77.529037 4284109655
-931.34692 -4.3884277 77.817444 4283651164
-988.58856 -1.867124 77.719849 4283913043
-973.92023 -0.62547845 77.611816 4283781969
-970.71973 -0.51050311 77.836212 4283716183
-969.17017 -0.53001308 77.786903 4283716182
-966.74249 -0.68396664 77.916855 4283519059
-960.49054 -0.53409129 78.231697 4283650901
-958.79877 -0.54166096 78.271889 4283978837
-956.22748 -0.57008117 77.778641 4283650904
-954.09381 -0.48364693 77.576134 4283651670
-950.87158 -0.40630123 77.777451 4283847253
-947.88995 -0.73862797 77.816055 4283585623
-946.3067 -0.5508194 77.862221 4283716436
-943.92194 -0.76922584 77.957382 4283782228
-941.09723 -0.56471419 78.199005 4283716435
-938.83783 -0.52371156 78.158524 4283585622
-936.10834 -0.53568411 78.407806 4284044117
-933.79004 -0.53908575 78.427216 4283782231
-931.57727 -0.39411387 78.456284 4283847763
-928.88824 -0.24478497 78.593658 4283978325
-926.08368 -0.21137577 79.102554 4283847766
-923.95215 -0.23281521 78.680473 4284109657
-973.97296 0.21975963 77.568932 4283716693
-970.52411 0.25968933 77.761292 4283781981
-969.26788 0.29777527 77.738823 4283978838
-966.64893 0.39616141 77.838036 4283847251
-960.42334 0.71455538 77.958412 4283781969
-958.69238 0.90070784 77.940331 4283781972
-956.46429 0.56586224 77.752304 4283716696
-953.59308 0.4331243 77.593216 4283782228
-951.30756 0.50746697 77.643105 4283913051
-947.76471 0.59115857 77.863594 4283913046
-945.99536 0.81245959 77.831963 4283978326
-943.68286 0.96494931 77.884956 4283650641
-941.42926 1.0503051 77.882797 4283716435
-938.66437 0.74267673 78.051163 4283716438
-936.14648 0.76772135 78.261894 4283847509
-933.76746 0.92832875 78.355919 4283913303
-931.31665 0.96272433 78.399765 4283847767
-928.75726 1.1503327 78.331612 4283847510
-926.24518 1.0712519 78.494057 4283716952
-923.69116 1.0497047 78.322159 4283979352
-921.83112 1.2939202 78.372353 4283979353
-917.98474 2.446434 77.513062 4284308064
-945.07623 2.9213383 77.595604 4283913304
-942.81689 2.9780705 77.517418 4283323221
-942.38092 2.7736461 77.506775 4283389266
-918.00464 2.9450264 77.618439 4283913818
-982.66235 6.9018021 77.657074 4284044630
-980.44623 6.9992013 77.658546 4283716697
-978.91583 7.1094346 77.54808 4283782235
-977.48407 6.8684411 77.774742 4284175963
-972.63379 6.8527756 77.673157 4283979602
-971.98505 6.7823334 77.818848 4283781974
-942.82611 7.2848611 77.609192 4283519319
-941.10223 7.2207513 77.551636 4283716437
-932.1308 7.1092625 77.677353 4284043860
-928.43835 7.3591919 77.803711 4283846999
-925.83636 6.9269915 77.903 4283847510
-923.43835 6.7974439 77.807953 4283782233
-921.26825 6.4773207 77.766556 4283913815
-918.80927 6.7613597 78.072685 4283979096
-983.18475 8.3168831 77.598053 4284241754
-980.21747 8.2611017 77.574409 4283979093
-979.78754 8.2993393 77.539642 4284176213
-968.35406 8.6601524 77.868073 4284044373
-946.32874 8.8765192 77.71785 4283716694
-942.61646 7.5054169 77.597473 4283454037
-941.00507 7.6272221 77.539841 4283716433
-935.77277 9.0058527 77.937538 4283913045
-934.1991 8.8715696 78.059174 4283782231
-931.34558 8.7990837 78.223587 4283782231
-928.50537 8.8658018 77.880623 4283847766
-926.39093 8.6219425 77.960327 4283913302
-923.85736 8.7150984 77.704819 4283848026
-921.21179 8.018959 77.819038 4283979353
-918.79291 8.2219915 77.973564 4283847765
-968.51532 10.106102 77.631714 4283913550
-965.01361 12.124921 77.755798 4283585881
-964.81543 11.277763 77.744667 4284044889
-961.72333 11.313876 77.638756 4283781972
-959.01086 11.143909 77.571472 4283913813
-955.78717 11.215741 77.800842 4283913298
-953.82758 11.264743 77.733032 4284044373
-951.20355 11.387845 77.642403 4283913043
-948.62354 11.463485 77.681366 4283781974
-946.75122 11.312626 77.665817 4283782230
-944.80249 11.577088 77.587944 4283585874
-941.11926 11.403129 77.961044 4283847766
-938.66992 11.371589 78.120537 4283913557
-936.1958 11.557845 77.926552 4284044374
-933.81262 11.249534 78.047554 4283782486
-931.01953 11.273039 78.044426 4283913558
-928.7605 11.301557 78.060448 4283848025
-926.19208 11.390141 78.269363 4283913303
-923.83258 11.250523 78.240952 4283913561
-921.38098 11.515782 78.153229 4284110170
-919.88672 11.561594 78.288193 4284175186
-967.64655 14.003288 77.669212 4283979865
-966.13593 13.508747 77.719109 4284044888
-964.23132 13.114491 77.708771 4283717463
-962.20325 12.760008 77.697449 4283847507
-959.18842 13.77417 77.687767 4283520856
-956.61499 13.402467 77.774895 4283913046
-954.06348 13.261187 77.69281 4283781716
-950.18042 12.970909 77.573395 4283978580
-948.58337 12.985245 77.568108 4283650900
-946.19287 12.579518 77.65696 4283978580
-941.14435 12.618846 77.749825 4284044373
-938.48212 13.145836 78.022026 4283651161
-936.49371 13.649273 78.084221 4283847767
-933.6922 13.657686 77.945549 4283979096
-931.3205 13.706133 77.7929 4284109909
-928.69781 13.676953 77.950089 4283848022
-926.1889 13.710141 78.064972 4283913815
-923.63129 13.719514 78.099525 4283979094
-921.43414 13.519474 78.124809 4283913558
-919.91937 12.832619 78.260925 4284105014
-936.37152 15.06971 77.683655 4284175696
-933.46881 15.14283 77.583252 4283847510
-928.31226 15.112541 77.569031 4284175185
-922.54932 15.074432 78.190979 4284307030
-921.89606 15.100278 78.008888 4283913560
-923.86835 19.106895 77.973999 4283256915
-956.06824 22.042192 77.682396 4284110684
-954.17444 22.070766 77.765656 4284307035
-951.23468 21.98498 78.06665 4284045144
-949.0954 22.013712 78.140381 4284110683
-946.07733 22.089447 78.011345 4283520347
-940.43567 21.898952 78.108124 4283980120
-938.90021 22.023849 77.876427 4283782746
-936.41724 22.062538 77.842606 4283782743
-933.45679 22.06904 78.001343 4283782748
-931.41418 22.121504 77.90226 4283717210
-929.64258 22.165085 77.86422 4284044629
-955.87994 22.983707 77.577332 4284438874
-954.0321 23.06156 77.828079 4284176221
-951.25812 23.559231 77.920998 4284045146
-948.78589 23.691437 77.888519 4284044631
-945.98297 23.817057 77.91954 4283978843
-943.80255 23.910437 77.781326 4284044634
-941.06195 23.897337 78.002144 4283913304
-938.79608 23.826723 77.889473 4283913815
-936.19537 23.8627 77.987114 4283848280
-933.80402 23.755819 77.841331 4283913560
-931.40356 23.829298 77.96257 4283848025
-929.32544 23.896517 77.869987 4284044376
-927.16895 24.601889 77.953842 4284175700
-951.88831 25.747538 77.633118 4284307547
-947.91815 25.130655 77.541359 4284241751
-941.48895 25.595539 77.784401 4283913561
-938.42706 25.67054 77.72142 4284044886
-935.98657 25.64237 77.812172 4283979607
-933.79797 25.638699 77.728935 4284110169
-931.29407 25.667778 77.899498 4283978841
-928.87598 25.175518 77.734474 4283979609
-927.33887 25.669416 78.199799 4283583816
-940.4751 29.807201 77.855286 4283914332
-938.69958 29.771618 77.789742 4283913821
-937.40149 29.731102 77.576538 4284503645
