# .PCD v0.7 - Point Cloud Data file format
VERSION 0.7
FIELDS x y z rgba
SIZE 4 4 4 4
TYPE F F F U
COUNT 1 1 1 1
WIDTH 1120
HEIGHT 1
VIEWPOINT 0 0 0 1 0 0 0
POINTS 1120
DATA ascii
-906.6308 -63.511223 60.398205 4281872158
-907.74023 -61.90337 60.076744 4281477918
-906.68951 -61.823051 60.22958 4281674263
-908.28357 -56.40102 60.538467 4281543205
-907.26886 -56.826431 60.298553 4281739805
-908.67865 -54.690422 60.823914 4280952069
-909.55878 -51.114548 60.258484 4281871643
-998.71265 -47.727776 61.335052 4284900708
-997.05878 -47.673283 61.377117 4284703581
-998.37073 -47.031658 60.799988 4284769128
-996.15283 -46.844925 60.960831 4284769124
-1003.9976 -49.667877 64.309143 4284572513
-997.2691 -48.464355 64.32135 4284899938
-991.43439 -46.427719 62.674271 4284506981
-1003.4266 -49.82333 66.0588 4284703330
-1001.6119 -49.550617 66.352722 4285031265
-998.47522 -49.362976 66.834412 4284178524
-996.21558 -48.572594 66.242218 4284899425
-994.53534 -48.461807 67.461731 4284506469
-986.6972 -47.30101 67.049805 4284704111
-950.77454 -41.819771 66.438972 4285162854
-949.19781 -41.317558 66.475174 4285163115
-943.94519 -40.137497 66.49115 4285228646
-1005.7135 -50.712044 69.651093 4284768866
-1003.5246 -50.34613 68.812195 4284768357
-1001.765 -50.367657 68.202621 4284703329
-1002.6949 -49.97879 67.769409 4284899939
-1001.552 -49.786064 67.726471 4284899939
-996.11536 -48.88723 68.984894 4284965478
-994.47699 -48.63369 69.200562 4284244578
-986.64081 -47.533356 69.369629 4285293928
-986.66895 -47.417343 68.211304 4284638569
-983.60962 -46.911739 68.947479 4284966501
-981.96997 -46.726292 69.399696 4284769379
-958.58923 -42.970257 68.987923 4284966252
-955.46545 -42.744968 69.58345 4284834922
-953.68976 -42.722431 69.111328 4285293670
-952.44318 -42.562149 69.144775 4285294184
-952.75696 -42.408936 68.227783 4285228907
-950.30823 -42.05909 67.907501 4285163365
-947.97003 -41.251827 68.337784 4285097832
-947.25031 -41.14003 68.84021 4285163886
-939.80475 -40.08168 69.810913 4284704872
-939.76917 -39.955841 68.65625 4284835946
-1005.7715 -50.744648 70.534988 4284899425
-1004.1667 -50.856644 71.248917 4284767585
-1000.8429 -50.176819 71.369583 4284702556
-1000.603 -49.980743 70.937134 4284899421
-998.4635 -49.830162 71.414673 4284702816
-996.67841 -49.334446 71.409912 4284768608
-993.92737 -48.77882 70.993484 4284637789
-986.60205 -47.747627 70.899475 4285227360
-983.55408 -47.092094 70.526382 4284834914
-980.98053 -46.754452 71.188957 4284834658
-979.48145 -46.601738 71.211121 4285162340
-961.08624 -43.534473 70.720215 4284965992
-958.12903 -43.268517 70.961891 4284966249
-955.60413 -43.068741 71.233665 4284899685
-954.74976 -42.949127 71.085815 4284965733
-947.92969 -41.27013 70.08075 4285032555
-947.2785 -41.248489 70.089844 4284901994
-939.85791 -40.269753 71.536774 4284900711
-929.1886 -38.730606 71.904587 4285031529
-926.8847 -38.31543 71.054047 4285097568
-924.48401 -37.983734 71.593689 4285491047
-980.38477 -71.35038 74.97403 4283519313
-999.09491 -65.201523 74.841492 4283389011
-988.36798 -64.409325 74.975571 4283650129
-990.77979 -52.763481 74.88205 4284109660
-989.31787 -52.727032 74.831398 4284044370
-984.11298 -52.807358 74.746277 4283782235
-1006.9622 -51.562729 74.094543 4284768089
-1004.0223 -51.056885 74.519165 4284440153
-1001.0179 -50.369572 73.226021 4284570203
-998.81714 -50.168289 74.931458 4284570200
-983.80377 -52.261887 74.633972 4283913309
-999.23517 -49.969208 72.558083 4284505950
-996.66718 -49.685917 73.895935 4284439648
-993.42566 -49.165932 74.309525 4284439390
-991.65283 -48.855122 74.342529 4284308831
-989.26489 -48.623299 74.597931 4284309085
-986.53589 -48.079041 73.552307 4284768096
-984.26807 -47.700932 73.41909 4284374876
-980.99097 -47.188122 73.69976 4284702301
-979.39423 -47.024693 73.886246 4284636767
-975.73798 -46.238071 73.861893 4284702561
-974.12506 -45.893475 73.887642 4284964966
-971.35663 -45.562504 74.443916 4284768096
-969.02881 -45.310165 74.955383 4284308322
-957.69971 -43.666397 73.96521 4284375398
-955.44592 -43.182884 74.411438 4284964193
-953.17035 -42.904434 73.783447 4284637027
-950.92993 -42.481476 74.820129 4284440672
-944.45471 -41.429138 74.13208 4285226852
-942.19196 -41.047607 74.047668 4284833890
-939.92407 -40.687881 73.82798 4284768105
-936.71362 -40.269775 74.391212 4284768099
-929.2049 -38.957188 73.655815 4284834149
-926.99036 -38.570351 73.3461 4284572514
-923.82922 -38.067913 73.987938 4284834401
-921.56659 -37.682682 73.628311 4284833630
-918.99695 -37.291985 74.600067 4284506216
-1000.4068 -87.973442 76.68766 4283847245
-998.99261 -88.032135 76.778809 4283913555
-996.34784 -87.74765 76.68811 4283847764
-994.77045 -87.698418 76.914062 4283847767
-987.74481 -87.707458 76.345032 4284174684
-986.44672 -87.674873 76.300156 4284110421
-1000.3986 -87.243469 77.355186 4283978314
-998.77692 -87.202934 77.302834 4283781708
-996.276 -87.09436 77.221367 4283847764
-994.71497 -87.227112 77.314667 4283650647
-988.06805 -87.062866 77.063789 4283913559
-986.29327 -86.969604 76.693443 4284044886
-983.62122 -86.77623 77.376328 4284373082
-981.26355 -86.483147 77.18058 4284242007
-979.38867 -86.333168 77.256836 4284438876
-1002.3278 -83.824257 77.299316 4283387980
-999.5238 -83.43158 77.234009 4283781464
-957.8078 -82.650421 77.490685 4284373335
-956.4563 -82.72451 77.446564 4284176985
-953.97119 -82.544479 76.928368 4284438361
-980.38959 -82.385918 77.480286 4283977808
-979.57971 -82.365578 77.452271 4283651669
-971.1629 -81.901604 77.2314 4283913563
-958.04718 -81.738258 77.477013 4284438357
-956.2218 -81.769432 77.409927 4283848277
-953.80115 -81.679817 77.175102 4284176216
-951.30475 -81.504898 77.273895 4284110935
-948.57172 -81.277847 77.117897 4284242266
-947.05115 -81.138359 77.092926 4284308315
-1002.9826 -78.426476 76.784996 4283387729
-1001.2212 -78.191811 77.071487 4283519315
-998.96149 -78.025436 76.966064 4283518803
-996.38055 -77.697334 76.895966 4283518802
-993.83337 -77.762207 76.776321 4283519822
-1003.137 -76.388702 76.212296 4283387729
-1001.1904 -76.35881 76.54464 4283453520
-998.7597 -76.298347 76.376099 4283388240
-996.29828 -76.280167 76.393555 4283584849
-993.75653 -76.331528 76.361725 4283715667
-991.26813 -76.058891 77.101402 4283585109
-988.7926 -76.067902 77.046356 4283912274
-986.28778 -76.011787 77.066475 4283584595
-983.67841 -76.034119 76.973946 4283584852
-981.2403 -76.159149 76.924568 4283716178
-978.96521 -75.897491 76.837479 4283650645
-976.25262 -75.728653 77.023949 4283978323
-973.76819 -75.874886 76.594971 4283913300
-971.36975 -75.893036 76.589111 4283782229
-968.94562 -75.778137 76.886093 4283847767
-966.23206 -75.43512 76.97464 4283912793
-963.53809 -75.360352 76.966507 4283913048
-961.93671 -75.246277 77.100327 4283781720
-958.53308 -75.235054 76.81543 4283847506
-956.67621 -75.107712 76.991821 4283651418
-953.84363 -75.181084 77.175041 4284043862
-951.31525 -75.367722 77.2332 4284044376
-941.76538 -75.215851 77.221718 4283978836
-1003.3783 -73.642326 76.91835 4283387727
-1001.3711 -73.622391 77.032516 4283584849
-998.63226 -73.600227 76.912628 4283453520
-996.28186 -73.809059 76.719994 4283388239
-993.76501 -73.756775 76.425735 4283650387
-991.21307 -73.765144 77.026474 4283519316
-988.75537 -73.782944 76.903854 4283519311
-986.3045 -73.739754 76.652908 4283584593
-983.74823 -73.707527 76.612671 4283715923
-981.26257 -73.631256 76.578667 4283847250
-979.07361 -73.564728 76.805298 4283650901
-976.02966 -73.443619 77.146317 4283781458
-973.68799 -73.4981 76.826462 4283782229
-971.24323 -73.79187 76.760597 4283782229
-968.79114 -73.744987 76.933395 4283585623
-966.18561 -73.816536 77.037048 4283913302
-963.77136 -73.871223 76.925133 4283847766
-961.41486 -74.052437 76.99865 4283978583
-958.71692 -73.613167 76.843925 4283913558
-956.23322 -73.697731 76.692093 4283978583
-953.80255 -73.88385 76.500954 4283781973
-951.37079 -74.027603 76.545326 4283913045
-948.75995 -73.719376 77.066856 4284044631
-946.29785 -73.896301 77.098663 4283716693
-943.81012 -73.807449 76.827995 4283978839
-941.4165 -73.904465 77.020607 4284110167
-938.1485 -73.741776 77.04174 4283847765
-936.32611 -73.501778 76.984238 4283913561
-933.94012 -73.266396 76.945572 4283782233
-931.23859 -73.290733 76.871445 4283913557
-928.27484 -73.207184 77.28093 4284045141
-926.29913 -73.053535 77.337868 4283913816
-924.49359 -72.893478 77.37635 4283782488
-920.93634 -72.937347 77.27726 4284307545
-909.34399 -72.514183 77.432709 4284110944
-1003.6766 -72.121826 76.835274 4283387983
-1001.4205 -72.288788 76.664871 4283518800
-998.62616 -72.206367 76.556023 4283387469
-996.3479 -72.19429 76.777412 4283322448
-993.81079 -71.993065 76.946007 4283322199
-991.04584 -71.975883 76.670135 4283650128
-988.70746 -71.924026 76.337791 4283584596
-986.28558 -71.945938 76.145523 4283388241
-983.6922 -71.842354 76.31617 4283585105
-981.19061 -71.710312 76.130569 4283781458
-978.70941 -71.57843 76.461563 4283650898
-976.30127 -71.52758 76.350883 4283716177
-973.68402 -71.597916 75.843712 4283716178
-971.22614 -71.461243 76.551704 4283781969
-968.7854 -71.475914 76.532089 4283716436
-966.24475 -71.491348 76.579414 4283650644
-963.69116 -71.335121 76.433929 4283847507
-961.21832 -71.076385 76.812859 4283651159
-958.80756 -71.261185 76.683655 4283651158
-956.1673 -71.248627 76.528824 4283847511
-953.75928 -71.265549 76.62587 4283781975
-951.46765 -71.079865 76.949257 4283913046
-948.76959 -70.970436 77.024254 4283781974
-946.26465 -71.065834 77.182137 4283978583
-943.81073 -71.112282 77.164078 4283913558
-941.40875 -71.31955 77.2752 4283716694
-938.71625 -71.204353 77.363686 4284044374
-931.09332 -72.478569 76.655273 4283848023
-924.19452 -72.229431 77.490616 4283979095
-920.93652 -71.982689 77.400002 4283915350
-1000.6835 -67.779449 76.980652 4283846480
-999.21674 -67.825531 77.079803 4283322189
-996.17651 -67.727943 77.393944 4283649872
-993.73987 -67.757751 77.435318 4283585365
-991.46808 -67.761894 77.425972 4283519568
-960.29315 -69.851807 76.86499 4284174167
-958.51288 -69.851936 76.976837 4283912532
-956.40717 -69.753647 76.72998 4283979096
-953.50208 -69.651016 77.1371 4284109912
-951.24091 -69.581688 77.26786 4283847767
-948.7467 -69.547554 77.172653 4283847768
-946.22028 -69.620575 77.045563 4283913303
-943.73749 -69.531128 77.029335 4283782233
-941.31305 -69.639557 77.219864 4283913303
-938.78851 -69.728897 77.322716 4283781717
-930.50812 -69.127953 77.482986 4284044621
-928.7135 -69.115387 77.421669 4284045138
-925.74451 -68.543945 77.466515 4284175960
-923.89117 -68.78891 77.418922 4283913560
-921.69531 -68.923958 77.378731 4284110167
-1005.1732 -66.335396 76.714401 4283649617
-1003.7457 -66.181244 76.665306 4283650129
-1001.2084 -66.098343 76.275169 4283584592
-998.77307 -66.218437 76.404648 4283518799
-996.24005 -66.210838 76.722206 4283519054
-993.68939 -66.209007 76.715942 4283584850
-991.37994 -66.221977 76.813583 4283715922
-988.86206 -65.492355 76.483902 4283650899
-986.21429 -65.489655 76.643181 4283519058
-983.85962 -65.358185 76.981445 4283519572
-981.61871 -65.430275 77.070045 4283716435
-978.85596 -65.234085 76.97081 4283453522
-976.87732 -65.207283 77.052719 4283387730
-973.54388 -65.03376 76.824081 4283781716
-1005.4073 -63.770508 76.541519 4283322702
-1003.8819 -64.029877 76.111717 4283584591
-1001.2104 -64.008675 76.139198 4283650129
-998.70605 -64.015007 76.163849 4283650129
-996.27313 -64.317215 75.65107 4283650383
-993.78986 -64.408691 75.454086 4283715662
-991.27838 -64.285034 75.7556 4283453523
-988.85846 -64.162628 75.895287 4283715664
-986.26355 -64.207748 75.945343 4283519316
-983.65485 -64.213577 76.096832 4283781459
-981.28479 -64.303032 76.004234 4283913043
-978.76593 -64.196739 75.969841 4283846994
-976.12885 -64.001411 76.697617 4283781715
-973.7381 -63.880001 76.462868 4283782227
-971.3064 -63.807354 76.704773 4283781972
-968.71478 -63.718952 76.723518 4283716437
-966.39117 -63.559441 76.940468 4283781716
-963.8233 -63.544514 76.860016 4283716179
-961.26624 -63.605206 76.593384 4283913041
-958.6416 -63.479103 76.792084 4283847763
-956.29108 -63.49728 76.839333 4283716692
-953.98145 -63.174374 76.87352 4283847507
-950.76093 -63.057232 77.080254 4283781971
-948.8811 -62.916553 77.135284 4283781714
-946.44464 -62.903004 77.015976 4283913301
-944.02246 -62.77729 77.214699 4284043606
-941.49036 -62.680115 77.137901 4283585878
-938.97168 -62.76442 77.287483 4283847762
-935.81812 -62.735134 76.94973 4283847506
-934.04211 -62.698891 77.046585 4283847768
-931.97858 -62.676319 77.39286 4283978837
-926.21875 -62.734661 77.381584 4284044886
-923.67316 -62.701736 77.375107 4283782488
-921.34125 -62.641418 77.322723 4283782487
-1005.5526 -61.12513 76.89653 4283715663
-1004.5867 -61.50639 76.772598 4283715664
-1001.2275 -61.022449 77.459221 4283519313
-998.77289 -61.021503 77.378098 4283715921
-997.13922 -60.815212 77.374886 4283780941
-965.99634 -62.355473 77.422531 4283781712
-963.24548 -62.285591 77.326935 4283716433
-961.29279 -62.405731 76.442467 4283847250
-958.70361 -62.347145 76.580376 4283847249
-956.17969 -62.29557 76.656128 4283847507
-953.84918 -62.327286 76.756882 4283716688
-950.74957 -61.871758 77.26564 4283651159
-949.01038 -61.960571 77.088882 4283848019
-946.13818 -62.094742 76.88903 4283979097
-943.93866 -62.093773 76.705574 4283978580
-941.24988 -62.013733 76.646324 4283782230
-938.65198 -61.928307 76.747452 4283782227
-936.25586 -61.822899 76.663338 4283847511
-933.73499 -61.755733 76.581047 4283913045
-931.31079 -61.696167 76.897888 4283782484
-928.578 -61.646095 77.307144 4283847767
-926.22766 -61.627453 76.962173 4283782743
-923.81036 -61.55722 77.016441 4283782486
-921.22272 -61.49506 76.889992 4283979094
-918.67316 -61.397243 77.411011 4283848029
-916.25061 -61.336559 77.327232 4284110930
-913.36371 -60.964478 77.411247 4283848277
-911.50751 -60.897362 77.351357 4283716699
-1006.3713 -58.731873 76.871429 4283519313
-1003.0222 -58.614277 77.473236 4283650645
-1001.308 -59.034214 77.423553 4283257425
-998.39258 -58.909317 77.424286 4283584850
-997.21539 -58.683327 77.390205 4283453778
-988.76105 -59.580383 77.166016 4284306766
-1005.8396 -56.167107 76.613586 4283716180
-1003.7822 -56.198997 76.857719 4283650900
-1001.148 -55.941765 77.382042 4283650642
-998.74719 -56.117912 77.422836 4283519571
-996.75714 -56.064857 77.380417 4283716437
-1006.1357 -53.735596 76.457718 4283913044
-1003.6979 -53.767208 76.417831 4283782230
-1001.2639 -53.846806 76.595078 4284044368
-998.80267 -53.876408 76.736069 4283781971
-996.27454 -53.771465 76.655792 4283782227
-993.74561 -53.590637 76.632385 4283848019
-991.29736 -53.690975 76.490295 4283847763
-988.80817 -53.513023 76.340454 4283848022
-986.15991 -53.324432 76.354126 4283847510
-983.72784 -53.359268 75.857109 4283847768
-981.24225 -53.436707 76.209221 4283781974
-978.70917 -53.506298 76.352333 4283978579
-976.35284 -53.362087 76.501411 4283913556
-973.78589 -53.178829 76.460129 4283847511
-971.11523 -53.133583 76.264656 4283716951
-968.61426 -53.159077 76.744308 4283848279
-966.32056 -53.078423 76.793983 4283979093
-963.60413 -52.923302 77.040451 4284109909
-961.47607 -52.932816 77.031151 4283913307
-958.5813 -52.786961 77.168968 4283979095
-956.69501 -52.719887 77.159775 4284372312
-954.39325 -52.915943 77.202988 4283585366
-951.84265 -52.595871 77.024261 4283848026
-949.57965 -52.690914 77.204437 4283912798
-1006.2068 -52.140011 76.659447 4283979351
-1003.5966 -51.883728 77.035835 4283782744
-1001.0665 -51.61565 76.663338 4283978838
-998.745 -51.316582 76.742348 4283848277
-996.21112 -51.258698 76.226288 4283913302
-993.73151 -51.177242 76.470299 4284044629
-991.26794 -51.020016 76.239388 4283848025
-988.78052 -50.973343 76.13781 4283978839
-986.28363 -51.066647 76.184097 4283913301
-983.67889 -50.987335 76.104805 4283848279
-981.28137 -51.267334 75.976875 4283979096
-978.77155 -51.323647 75.828003 4283979093
-976.13458 -51.360512 75.750175 4283979096
-973.74036 -51.35614 75.664452 4283913559
-971.31964 -51.261078 75.572426 4283979096
-968.74554 -51.22139 76.074112 4283979095
-966.19189 -51.146049 76.245934 4283979094
-963.82013 -51.33754 76.39344 4284044630
-961.2345 -51.364792 76.289909 4283848025
-958.66467 -51.382397 76.528038 4283913558
-956.24597 -51.236385 76.998535 4283913306
-953.82532 -51.357079 76.908684 4283848022
-951.18646 -51.34182 76.918182 4284044630
-948.67139 -51.145229 76.827705 4284109912
-946.30804 -51.101959 76.87384 4283848278
-943.99243 -51.141869 76.752136 4284044377
-941.13501 -51.016182 77.111298 4284044632
-938.539 -50.805843 77.278549 4284044630
-936.3255 -50.792419 77.238556 4283848019
-933.67572 -50.76553 77.280899 4284109913
-931.36652 -51.064175 77.240952 4284110422
-928.60803 -50.438881 77.267014 4283979865
-925.73132 -50.486908 77.210045 4284110938
-923.93713 -50.513588 77.104141 4283979607
-920.65802 -50.545822 77.111816 4283979098
-918.87531 -50.187325 77.35289 4284110679
-916.19159 -50.123707 77.340622 4284110424
-996.19092 -49.933567 75.773483 4284373337
-993.39612 -49.605839 76.142044 4284372824
-991.12476 -49.287487 75.838921 4284176986
-988.73193 -49.257084 75.776939 4284307548
-986.1759 -49.1619 75.71698 4283914583
-983.71307 -49.091923 75.629181 4284045146
-981.2442 -48.94622 75.641052 4284110424
-978.89752 -48.995892 75.890594 4284044888
-976.18872 -48.878841 75.762962 4284110422
-973.72662 -48.765251 75.749557 4284045145
-971.28314 -48.84269 75.760735 4284110426
-968.74371 -48.784824 76.038803 4284045146
-966.17194 -48.703537 76.32679 4284110423
-963.73352 -48.686977 76.494751 4283979608
-961.32202 -48.746468 76.284515 4284175959
-958.73248 -48.758659 76.515823 4283979351
-956.17938 -48.675484 76.439766 4283979606
-953.76575 -48.855618 77.099915 4283848022
-951.18829 -48.670513 77.083939 4284110679
-948.75244 -48.573746 77.027344 4283914072
-946.32123 -48.567814 77.012932 4283782742
-943.57178 -48.469135 77.318619 4284045144
-941.23444 -48.663799 77.041084 4283979350
-938.9884 -48.389977 77.229683 4283913815
-936.11224 -48.472599 77.369987 4283979096
-933.53003 -48.749508 77.178612 4284175962
-931.46075 -48.746258 77.107101 4283848534
-928.86566 -48.026199 77.255791 4283848790
-926.29663 -48.543495 76.911186 4284110424
-923.64935 -48.672161 76.879745 4283848280
-921.11829 -48.526756 76.819382 4284241496
-918.66724 -48.720863 76.982666 4283913816
-916.2099 -48.733505 76.828346 4283913563
-914.63141 -48.179131 76.696144 4283979347
-980.22827 -47.384457 75.608788 4284438105
-979.28015 -47.36227 75.717163 4284570202
-975.8006 -46.630775 76.644592 4284176987
-974.1499 -46.266567 76.375702 4284374104
-971.28546 -45.751251 76.345421 4284440157
-968.97174 -45.766491 76.328255 4284243036
-966.92603 -45.112488 76.568924 4284636255
-963.46454 -47.254997 75.82682 4284175959
-961.36066 -47.207718 76.104141 4284241747
-958.7793 -47.127293 76.891098 4284176467
-956.18768 -47.086823 76.67115 4284044634
-953.76227 -47.136822 76.876572 4284176219
-951.12085 -47.059406 76.818237 4284045149
-948.69006 -47.038368 76.78904 4283979865
-946.2453 -47.013397 76.783371 4284110936
-943.81036 -47.117191 77.355286 4284044629
-941.29663 -46.980469 76.912254 4284044888
-938.70087 -46.908134 77.301247 4283913815
-936.10071 -46.861584 77.380539 4284044887
-933.74115 -46.75301 77.231148 4283914073
-931.25433 -46.652462 76.969963 4284176474
-928.77509 -46.601143 76.969887 4283979607
-926.1131 -46.544022 76.828598 4284044631
-923.71588 -46.513641 76.750565 4283979352
-921.29083 -46.60516 76.724709 4284110421
-918.74677 -46.412987 76.666786 4284045144
-916.18976 -46.361729 76.566887 4283979612
-914.66693 -46.595181 76.582237 4284045142
-912.10156 -47.037781 76.996704 4282729036
-965.80035 -44.836685 76.990234 4284308827
-963.5368 -44.743916 77.121201 4284570717
-958.05499 -43.812756 76.784035 4284373851
-955.47198 -43.4454 76.579697 4284242520
-952.98004 -43.254086 76.572342 4284308569
-950.95264 -42.851608 76.391685 4284374369
-948.16351 -42.840351 77.026962 4284308318
-943.12079 -42.698254 77.123619 4283979608
-941.33124 -42.779121 76.947166 4283848283
-938.87653 -42.820084 76.915756 4283979867
-936.97797 -42.778145 77.066689 4284176730
-943.58398 -42.045113 76.662323 4284242523
-941.22803 -41.831066 76.587357 4284176989
-938.83148 -41.813015 76.59111 4284308058
-936.30786 -41.531399 76.996483 4284045915
-933.68646 -41.589905 77.156021 4284176217
-931.12787 -41.207947 77.07196 4284438875
-928.75787 -41.207012 77.043617 4284111194
-926.3139 -41.254002 76.983498 4284242265
-923.67957 -41.239262 76.944199 4284307546
-921.27197 -41.331013 77.053017 4284242267
-918.7843 -40.912067 77.105316 4284111193
-915.82227 -40.465054 77.394112 4284045400
-914.3476 -40.800285 77.442238 4284373078
-932.61725 -39.915466 76.888489 4284374879
-930.6109 -39.717392 76.839355 4284374111
-929.02606 -39.452625 76.473061 4284308317
-926.34363 -39.401085 76.725723 4284243040
-923.74969 -39.136459 76.857956 4284243036
-921.38495 -38.922001 76.717743 4284373852
-918.47882 -38.969646 76.853157 4284308062
-916.07684 -39.230976 77.301117 4284176732
-914.38806 -39.2225 77.12632 4284373081
-918.74634 -37.381851 75.877441 4284244326
-996.31592 -87.688667 77.648529 4283979092
-993.39429 -87.572914 77.720886 4284372055
-991.77264 -87.519104 77.718292 4284175960
-1000.798 -85.883316 78.951378 4283781456
-998.75293 -85.868027 78.829796 4283650384
-996.3324 -85.883125 78.807693 4283847507
-993.68463 -85.984161 78.884201 4283913043
-991.16718 -86.166061 78.740524 4283913558
-988.89941 -86.227715 78.400848 4284044373
-986.32971 -85.463341 78.930496 4283847510
-983.6142 -85.964745 78.449844 4283979862
-981.26178 -85.197426 79.229004 4284241493
-978.63025 -85.53688 78.707436 4284372825
-976.3548 -85.38929 78.633484 4284176216
-974.30676 -85.232956 78.783226 4284373600
-1001.0789 -83.834404 78.420906 4283584593
-998.67249 -83.796715 78.167953 4283584850
-996.24341 -83.70224 78.603241 4283781712
-993.78564 -83.563835 78.798103 4283716179
-991.17554 -83.881187 78.480301 4283781971
-988.77826 -83.809906 78.593483 4283913043
-986.30017 -83.782814 79.056007 4283781970
-983.71515 -83.647812 79.10984 4283782485
-981.18469 -83.74131 78.295616 4283847509
-978.7757 -83.746796 78.79541 4283913044
-976.31848 -83.743568 78.976181 4283913300
-973.93469 -83.514565 78.766541 4284044631
-971.23889 -83.01252 78.424538 4283979091
-968.80511 -82.929512 78.954659 4284175703
-966.27411 -82.981956 78.21505 4283848024
-963.80646 -82.83744 78.702988 4284241750
-961.25928 -82.961403 78.297592 4284306777
-958.87073 -82.935692 77.973633 4284242520
-957.20245 -83.149803 77.593414 4284110930
-1002.7942 -80.552788 78.449158 4283912274
-1001.3005 -81.236099 78.85498 4283387729
-998.71277 -81.178444 78.706635 4283780946
-996.25269 -81.249664 78.713448 4283781457
-993.80505 -81.238564 78.75972 4283781457
-991.23175 -81.253731 79.173447 4283650390
-988.60297 -81.233215 78.787888 4283781970
-986.25275 -81.34671 78.506401 4283650642
-983.81458 -81.080193 79.218811 4283781971
-981.31158 -81.088539 78.882973 4283650645
-978.69434 -81.144829 79.141808 4283781972
-976.32379 -81.444107 78.93338 4283716435
-973.74493 -81.436073 78.743996 4283913045
-971.2113 -81.231918 78.902687 4283913559
-968.75092 -81.270752 79.091759 4284044117
-966.31824 -81.297974 78.517105 4283913559
-963.6701 -81.388138 78.67955 4284044631
-961.20465 -81.391388 78.619133 4284044629
-959.03467 -81.179893 78.421143 4284044885
-956.32861 -80.779961 78.249123 4284044372
-953.52814 -80.937622 78.214615 4283913301
-951.25909 -80.535492 78.398758 4284110422
-949.63037 -80.85527 78.189964 4284438356
-947.40454 -80.92157 78.109131 4284701787
-1002.6995 -79.286476 78.022079 4283519056
-1001.2913 -79.462761 78.033249 4283387984
-998.69537 -79.145103 78.008026 4283518801
-996.1839 -78.888763 78.407471 4283519056
-993.73486 -78.812531 78.338409 4283650386
-991.3299 -78.712898 78.922119 4283650387
-988.76367 -78.672615 78.714943 4283781458
-986.22052 -78.622246 78.851944 4283846993
-983.79987 -78.66893 79.234093 4283650129
-981.20526 -78.670456 79.067825 4283781971
-978.94818 -78.887245 79.466194 4283847507
-976.13867 -78.835709 79.549278 4283847508
-973.83179 -78.751404 79.185936 4283913043
-971.20166 -78.722755 78.95433 4283913301
-968.72217 -78.729881 79.001465 4283847510
-966.26801 -78.743965 79.293152 4283979095
-963.76855 -78.670776 79.245544 4283782228
-961.25427 -78.719986 79.463303 4283979093
-958.70758 -78.603775 79.388649 4283978836
-956.29047 -78.802292 79.249901 4283847764
-953.76276 -78.807365 79.476875 4283913301
-951.21179 -78.825279 79.48439 4283979351
-948.75323 -79.072021 79.64843 4284175703
-946.31757 -78.563705 79.769394 4284045142
-943.80237 -78.3256 79.742508 4283913817
-941.21631 -78.291306 79.507385 4284110679
-938.69452 -78.208153 79.395622 4284176470
-936.38727 -78.413429 78.822685 4284242010
-933.77576 -78.125435 79.459183 4284373084
-931.1698 -78.097687 78.57222 4284242782
-928.91602 -77.933723 78.673683 4284373853
-926.40417 -77.699516 78.36174 4284373853
-924.89471 -77.705139 78.279907 4284440160
-992.52161 -77.192673 77.657654 4283584330
-991.14545 -77.303711 77.67215 4283650131
-988.95148 -77.272438 77.606758 4283780948
-986.05548 -77.31662 77.938622 4283846739
-983.87732 -77.288879 78.018684 4283519824
-981.48608 -77.089241 78.165527 4283912788
-978.44666 -76.994774 78.572723 4283912789
-976.16113 -76.928986 78.261726 4283716439
-973.77008 -77.142731 77.958351 4283781974
-971.23969 -77.04863 77.83403 4283847766
-968.44629 -76.766228 78.288643 4283847254
-966.22681 -76.574158 78.400856 4283978838
-963.85712 -76.464859 78.315285 4283716692
-961.19403 -76.24247 78.656471 4283978837
-958.72437 -76.408379 78.76915 4283782228
-956.21808 -76.221535 79.0961 4283847511
-953.84454 -76.387756 79.169426 4283978580
-951.35382 -76.300034 79.205208 4284044374
-948.67133 -75.732254 79.050278 4284044631
-946.24597 -76.003937 79.266876 4284110424
-943.76239 -75.956123 79.111122 4283978840
-941.23096 -76.224548 78.83371 4283913301
-938.73065 -76.022881 78.965385 4284044630
-936.18817 -76.08416 79.127678 4284045144
-933.86157 -76.290985 78.907784 4283979352
-931.25092 -76.293922 78.73587 4284045145
-928.73737 -76.32325 78.640099 4284175961
-926.27429 -76.382408 78.587753 4284176473
-923.97742 -76.2024 78.974243 4284242266
-921.27094 -75.236298 78.613472 4284045145
-918.68549 -75.186584 78.465988 4284045916
-916.34381 -75.046242 78.759338 4284308314
-913.84039 -75.077881 78.234779 4284438871
-1001.0131 -73.957474 77.719368 4283584593
-999.24982 -74.289024 77.645432 4283060304
-981.16443 -73.914871 77.552032 4283584853
-978.47382 -73.696564 77.604324 4283715924
-976.43481 -73.696373 77.545921 4283847250
-971.3291 -73.14856 78.307671 4283913043
-961.08588 -73.189484 77.994843 4284044375
-959.88397 -73.504066 77.92511 4283848273
-950.50616 -73.234085 77.660545 4283912790
-948.55048 -73.793411 77.633858 4284044631
-946.17877 -73.906113 77.725433 4283913558
-943.9223 -74.255959 77.641296 4283978841
-941.05505 -73.587326 77.83461 4284110168
-939.20441 -73.805145 77.768784 4284109656
-936.01569 -74.721954 77.869736 4283913561
-933.69086 -74.249207 77.881203 4283913306
-931.29419 -74.57196 77.978065 4284110167
-928.80957 -73.996819 78.078873 4283913816
-926.17139 -74.232117 78.526527 4283913816
-923.7525 -73.92601 78.50647 4283848538
-921.31976 -73.882156 78.452103 4284044888
-918.70575 -73.796875 78.167267 4284372569
-916.14441 -73.672607 78.440079 4284242012
-913.7514 -73.589371 78.451828 4284242009
-911.31775 -73.7967 78.536232 4284242010
-909.41205 -73.677979 78.311409 4284110683
-1003.522 -70.908714 78.446198 4283519310
-1001.1725 -70.978439 78.553047 4283453009
-998.7749 -70.78688 78.480255 4283584335
-996.28455 -70.780212 78.74556 4283715663
-993.85059 -70.646324 78.84063 4283453777
-991.31958 -70.522285 78.776855 4283453778
-988.77979 -70.369987 78.469864 4283781459
-986.45813 -70.419907 78.382828 4283519059
-983.76038 -70.408127 78.268829 4283715410
-982.14313 -70.371567 78.166428 4284043094
-976.16052 -70.060715 77.927856 4284043091
-974.54242 -70.019447 77.871422 4283716941
-961.37762 -72.017235 77.788322 4283848021
-950.73492 -71.941818 77.708237 4284174933
-948.76672 -71.699867 77.615105 4284044626
-946.01508 -71.798378 77.586586 4283913559
-943.54834 -71.467796 77.688171 4283913813
-941.22626 -71.290657 77.780907 4283913557
-938.88007 -71.225983 78.154015 4283979094
-936.20148 -70.961014 78.148972 4283913559
-933.771 -70.954414 78.065231 4283979352
-931.3783 -70.952728 78.039627 4283847765
-928.74823 -71.134056 78.076073 4283979095
-926.23016 -71.181084 78.514282 4284044629
-923.64667 -71.106972 78.410782 4284044888
-921.30756 -71.088669 78.269402 4284044888
-918.83441 -71.219437 78.479866 4284110425
-916.20453 -71.178535 78.466492 4283979607
-913.61694 -71.207375 78.360199 4284241753
-911.24841 -71.288124 78.456718 4284176217
-909.51562 -71.230217 78.775414 4284110938
-1005.0754 -68.041794 77.955223 4283977559
-1003.6818 -68.718765 78.768768 4283649873
-1001.3438 -68.770599 78.843269 4283518801
-998.6629 -68.880318 78.438583 4283584337
-996.22144 -68.923325 78.462746 4283453520
-993.79065 -68.837097 78.520386 4283650387
-991.22235 -68.831375 78.589729 4283453521
-988.67963 -68.728157 78.4851 4283584846
-986.23334 -68.839745 78.408897 4283650129
-983.81696 -68.923653 78.328194 4283584594
-981.20618 -68.769836 78.996979 4283650386
-978.74677 -68.727814 79.210571 4283650640
-976.33063 -68.705627 78.977837 4283716180
-973.76373 -68.692398 78.690628 4283716436
-971.17194 -68.640213 79.135681 4283716181
-968.77478 -68.650261 79.07634 4283781717
-966.34149 -68.556374 79.446533 4283650903
-963.72595 -68.497528 79.007278 4283913299
-961.19489 -68.524979 78.841423 4283781970
-958.77875 -68.444595 78.635979 4283913047
-956.36792 -68.41658 79.050293 4283782228
-953.7359 -68.223549 79.240433 4283716439
-951.15259 -68.161674 79.114761 4283781975
-949.28766 -68.128777 79.190567 4283847253
-946.33185 -68.139992 79.904465 4283848022
-943.52032 -68.407005 79.363136 4283716181
-940.99628 -68.400978 78.885826 4284044119
-938.84869 -69.114616 78.078362 4283978836
-936.20898 -69.153038 78.029945 4283716949
-933.63239 -69.01239 77.915352 4283847768
-931.31018 -68.824295 78.253044 4283979097
-928.80792 -68.785637 78.258202 4283913814
-926.28876 -69.107735 78.025352 4283979350
-923.41235 -69.115784 77.903008 4283979098
-920.60089 -69.013664 78.049072 4283914072
-918.7616 -68.993835 78.26255 4283979608
-916.28058 -68.81266 78.312775 4283913815
-913.70593 -68.934479 78.050323 4283979607
-911.10828 -68.862328 78.547935 4284045145
-909.55725 -68.854164 78.922562 4283782744
-1003.3185 -67.421173 77.640877 4283453262
-1001.8602 -67.38456 77.590416 4283912781
-998.45093 -67.28894 77.654022 4283519053
-990.18048 -66.537697 78.186485 4283387727
-988.71143 -66.696793 78.159523 4283454035
-986.22089 -66.603554 78.131432 4283715666
-983.78992 -66.64489 78.373985 4283453780
-981.12756 -66.448746 78.547844 4283584852
-978.65503 -66.275154 78.769341 4283650386
-976.23309 -66.185493 78.768265 4283715923
-973.78711 -66.171227 78.709091 4283781717
-971.23706 -66.144676 78.780869 4283585108
-968.67126 -66.13308 79.297897 4283585365
-966.24792 -66.247833 79.054077 4283781972
-963.83398 -66.240883 78.880798 4283847763
-961.21063 -66.301537 78.872025 4283650903
-958.72424 -66.171829 78.820221 4283716180
-956.30841 -66.310722 79.122978 4283781972
-953.78833 -66.278519 79.33812 4283716180
-951.20801 -66.208275 79.330513 4283716436
-948.66052 -66.153046 79.338058 4283781974
-946.5813 -66.271202 79.547394 4283781974
-943.95605 -66.208145 79.588234 4283913302
-940.53821 -66.177361 79.543633 4283782486
-939.07434 -65.5662 79.915054 4283978835
-936.06757 -65.392197 79.849503 4284044119
-934.10516 -66.183182 79.864037 4283782232
-931.2121 -67.081322 79.795662 4283913560
-928.7934 -67.023689 79.682495 4283782233
-925.62823 -65.158981 79.771912 4283519576
-923.20648 -65.207703 79.648163 4283978848
-921.18768 -65.436172 79.831474 4283848019
-919.14307 -67.391289 79.958115 4284045401
-916.06024 -66.11911 79.379097 4283979095
-913.80536 -66.309067 79.187042 4284044886
-911.22589 -66.536705 79.440453 4283979353
-909.77527 -66.348824 78.919373 4284109909
-1003.4396 -62.714977 77.55481 4283781203
-1001.3263 -62.785511 77.576202 4283715927
-998.73016 -62.747082 77.570755 4283649873
-996.58923 -62.891907 78.009048 4283388501
-993.51776 -62.903591 78.078102 4283453779
-991.31049 -62.86433 77.983437 4283584339
-988.76996 -62.766575 77.908066 4283650386
-986.27844 -62.637226 78.344879 4283191378
-983.78876 -62.605526 78.684631 4283453774
-981.36401 -62.547096 78.561218 4283912785
-979.9082 -62.508118 78.550354 4283847759
-976.13245 -64.880623 77.79715 4283912783
-973.54333 -64.815353 77.70755 4283978574
-971.27789 -64.758087 77.634903 4283584851
-968.60938 -64.812218 78.098618 4284109908
-965.98169 -64.534554 77.959312 4283716433
-963.67157 -64.697014 77.914459 4283650902
-961.23303 -64.812248 77.86689 4283847506
-958.73907 -64.680244 77.97998 4283847250
-956.11047 -64.734573 78.587524 4283781715
-953.75262 -64.329689 78.495193 4283650387
-951.39447 -64.041283 78.383133 4283847763
-948.57898 -64.038208 78.206764 4283781974
-946.16754 -64.11187 78.382683 4283781973
-943.75317 -63.990398 78.606201 4283847767
-941.24927 -63.954414 78.838295 4283782484
-938.64441 -63.880001 78.862198 4283913046
-936.30011 -63.84322 78.816895 4283913559
-933.97491 -63.672142 78.876228 4283913299
-931.04742 -63.637604 79.085724 4283716694
-928.69183 -63.730576 79.073456 4283913303
-926.21436 -63.759724 79.080055 4283782485
-923.62268 -63.719925 78.968719 4283913048
-921.30066 -63.700573 79.179657 4284044629
-918.55475 -63.198132 79.445633 4283913302
-916.1839 -63.547844 79.566322 4283848023
-913.77716 -63.61636 79.536858 4283913815
-911.49506 -63.57069 79.357224 4283913817
-909.85022 -64.829605 79.407745 4283453777
-1003.496 -61.280144 77.53772 4283715921
-1001.0007 -62.024689 77.596008 4283847251
-998.68481 -61.989475 77.553612 4283715660
-996.06732 -61.425079 78.209641 4283650130
-993.71606 -61.275723 78.23436 4283715924
-991.21893 -61.187145 78.812462 4283650642
-988.80359 -61.285236 78.208626 4283781715
-986.22534 -61.188858 78.743248 4283781714
-983.68195 -61.188126 78.777184 4283650898
-981.25281 -61.229347 78.707283 4283716181
-978.78381 -61.297482 78.714653 4283846992
-976.22675 -61.227524 78.748764 4283781714
-973.71942 -61.070564 78.839722 4283716434
-971.32507 -61.205532 79.039589 4283716436
-968.77747 -61.205727 78.584694 4283716179
-966.16443 -61.126911 78.380829 4283847253
-963.77057 -60.984253 78.497452 4283716179
-961.37445 -60.843822 79.152382 4283782229
-958.77582 -60.793991 79.15757 4283781971
-956.18781 -60.730553 78.975731 4283847507
-953.74133 -60.880283 78.809639 4283716434
-951.54523 -61.006916 78.205338 4283847763
-948.64795 -60.845715 78.568527 4283913045
-946.18097 -60.594845 78.857918 4283716695
-943.67694 -60.654076 78.621758 4283913046
-941.29492 -60.905388 78.43309 4284044117
-938.91272 -60.302601 79.036217 4283650905
-936.38232 -60.334839 78.890862 4283716692
-933.78473 -60.248055 79.186844 4283979097
-930.96582 -60.859116 78.478661 4284044371
-928.9848 -61.102615 78.201134 4284045143
-918.70209 -61.367321 77.891197 4283913815
-916.25171 -61.282974 77.809036 4284044888
-913.88879 -61.45507 77.879341 4283913560
-911.42755 -61.637074 77.931541 4283979098
-1005.5666 -58.627701 77.659431 4283715411
-1003.9171 -58.88871 77.630379 4283650643
-1001.2447 -58.619118 77.580727 4283585108
-999.0116 -58.485455 77.732964 4283519059
-996.04303 -58.682674 78.371201 4283781457
-993.77783 -58.677769 78.347145 4283650642
-991.17706 -58.760983 78.75473 4283585363
-988.77234 -58.743317 78.357986 4283716178
-986.32159 -58.767796 78.895996 4283781715
-983.69073 -58.737507 78.793953 4283781971
-981.18958 -58.735958 78.910126 4283847252
-978.79364 -58.766293 78.785721 4283716180
-976.42145 -58.890045 79.025658 4283781973
-973.5531 -58.869995 79.00415 4283781971
-971.2345 -58.790703 78.810074 4284044114
-968.82623 -58.826607 78.314491 4283781717
-966.25269 -58.755016 78.163536 4283782228
-963.66925 -58.715557 78.725182 4283978580
-961.22955 -58.714577 79.004028 4283913045
-958.8233 -58.692696 78.865746 4283781971
-956.25079 -58.834503 78.50975 4283716438
-953.66388 -58.809795 78.705879 4283716434
-951.24988 -58.771759 78.544563 4283912789
-948.79431 -58.700348 78.607216 4283913046
-946.25055 -58.666046 78.89579 4283781716
-943.6886 -58.731689 78.803818 4283651157
-941.25415 -58.813847 78.827278 4283913302
-938.8089 -58.811401 78.88456 4283847768
-936.22009 -58.817684 79.483299 4283978837
-933.67493 -58.770012 79.481232 4283782229
-931.21222 -58.682384 79.37088 4283913300
-928.72577 -58.682472 79.653221 4283979092
-926.16168 -58.507084 79.903328 4283848021
-923.76917 -58.416737 79.8284 4283847765
-920.98291 -58.672779 79.902451 4283848023
-918.75226 -58.691452 79.82856 4284044630
-916.10059 -58.670158 79.736168 4283979094
-913.87024 -58.568703 79.66275 4283979353
-911.3252 -59.53474 79.392708 4283847511
-1006.0443 -56.540977 77.619049 4283584852
-1003.9094 -56.827839 77.598877 4284043856
-1001.4657 -56.382603 77.601837 4283715922
-998.76337 -56.619308 77.902397 4283584849
-995.82446 -56.409859 78.195869 4283782226
-993.81989 -56.268665 78.2864 4283781971
-991.22601 -56.300091 78.389999 4283781970
-988.73999 -56.275223 78.469093 4283716436
-986.28204 -56.363277 78.826851 4283650645
-983.79413 -56.251106 78.939919 4283650900
-981.19525 -56.216949 78.957779 4283847764
-978.72888 -56.18428 78.64016 4283781972
-976.33606 -56.099533 78.86335 4283716437
-973.69244 -56.153999 79.135078 4283585620
-971.14996 -56.206936 78.686447 4283651158
-968.76117 -56.213005 78.673592 4283782226
-966.33807 -56.165085 78.471893 4283847510
-963.7356 -56.217316 79.161324 4283913301
-961.20953 -56.211308 78.977173 4283913301
-958.75446 -56.253021 79.142998 4283651414
-956.28571 -56.316853 79.029808 4283782231
-953.77197 -56.168289 79.401176 4283847507
-951.23425 -56.140896 79.083412 4283847510
-948.82599 -56.250252 79.055023 4283847509
-946.28473 -56.207729 79.176804 4283847510
-943.76239 -56.336819 79.124397 4283978583
-941.24231 -56.312675 78.992157 4283847766
-938.78497 -56.350143 79.10199 4283848019
-936.32538 -56.249847 79.646706 4283978838
-933.75061 -56.179913 79.646957 4283782485
-931.22125 -56.308331 79.430611 4283847767
-928.65918 -56.326153 79.486023 4283913302
-926.60785 -56.365051 79.577827 4283848022
-923.78857 -56.428406 79.727509 4283847768
-921.18866 -56.513901 79.831551 4283848022
-918.71027 -56.378059 79.750336 4283979096
-916.14685 -56.305 79.662201 4283782229
-913.87885 -56.257298 79.574837 4283979093
-911.78265 -55.719326 79.600967 4284110427
-995.28107 -54.811829 77.985695 4283389008
-993.72498 -54.803535 77.970634 4283847506
-991.52081 -54.665703 77.93248 4283913049
-988.4342 -54.538574 78.253075 4283781971
-986.26575 -54.471428 78.505531 4283716180
-983.80066 -54.446125 78.534798 4283782230
-981.42432 -54.484951 78.315521 4283650646
-978.65863 -54.734074 77.877029 4283978580
-976.18811 -54.521301 77.694908 4283650644
-973.85724 -54.261509 78.173691 4283716436
-971.36835 -54.21072 78.061501 4283781975
-968.77332 -54.272102 78.001991 4283716440
-966.19659 -54.262257 78.0961 4283782231
-963.87756 -54.085373 78.497421 4284044627
-961.04987 -54.135399 78.261063 4283913302
-958.72583 -53.939697 78.492767 4283848020
-956.29797 -53.869728 78.524117 4283847767
-953.72888 -53.863026 78.503777 4283847507
-951.20178 -53.664207 78.735626 4283978839
-948.68042 -53.693642 78.846649 4283979095
-946.33582 -53.643978 79.032166 4283782486
-943.76727 -53.684982 79.136482 4283782231
-941.20551 -53.736526 79.039116 4283782229
-938.73682 -53.742973 79.24366 4283847511
-936.29803 -53.776859 79.17347 4283782485
-933.8728 -53.720036 79.677742 4283847508
-931.20239 -53.62595 79.678604 4283782230
-928.57202 -53.529564 79.445663 4284110168
-926.45074 -53.452839 79.615463 4283913558
-924.61652 -53.588112 79.690804 4284110168
-921.02612 -53.122208 79.541817 4284044630
-919.85504 -52.568237 79.802856 4283717972
-913.21027 -54.963017 79.975784 4284241499
-911.92267 -54.930836 79.931274 4283979101
-997.39435 -51.180401 77.661377 4284109909
-955.4137 -52.495323 77.635803 4283913305
-953.52759 -52.448185 77.570457 4284044892
-952.34851 -52.404953 77.859253 4284308058
-948.1922 -52.176292 77.789299 4283913818
-946.02051 -52.080585 77.734085 4283783253
-943.38391 -51.583241 77.820862 4283979352
-941.30298 -51.578888 77.780228 4283848022
-938.81042 -51.938168 78.032585 4283913559
-936.29285 -52.056805 78.038338 4284044631
-933.95062 -51.915169 78.581863 4283848025
-931.03284 -51.953678 78.999931 4283848022
-928.66412 -51.376637 78.307297 4283913561
-926.35931 -51.537659 78.506439 4284044633
-923.8493 -51.518055 78.618835 4284044633
-921.35114 -51.527416 78.463615 4283848279
-918.70886 -51.216019 78.555702 4283979351
-916.1283 -51.229942 78.694191 4284045143
-913.81879 -51.156078 78.845749 4284110424
-912.2467 -50.93362 78.687401 4283848025
-978.18982 -47.615433 78.114655 4283979870
-976.7345 -47.578873 78.064209 4284568660
-951.57214 -48.857452 77.76796 4283848536
-948.65796 -49.234707 77.705894 4283585879
-945.90442 -48.972435 77.581329 4283913814
-944.04242 -49.072777 77.579514 4284110167
-941.58545 -49.86171 77.620865 4284109650
-938.57043 -48.860947 77.863976 4283979096
-936.19733 -48.665684 77.830765 4283979095
-933.91565 -48.753571 77.826797 4283979353
-931.06726 -48.660995 77.785576 4283848280
-928.65637 -48.804955 77.825218 4283913815
-925.97009 -48.929169 77.921402 4284045145
-923.927 -49.224804 77.678604 4284175961
-921.58386 -49.48959 77.585831 4284175960
-913.72894 -48.967068 77.831635 4283979350
-912.27704 -48.82093 77.93824 4283519828
-975.97314 -46.969215 78.07151 4284176730
-973.49506 -46.795532 78.252945 4284110938
-971.19971 -46.459026 78.259674 4284177242
-968.73047 -46.190254 78.316139 4284176727
-966.26398 -46.060978 78.192284 4283980122
-963.72626 -45.802498 78.733643 4284176218
-961.26172 -45.650806 78.833412 4284176473
-958.80115 -45.742222 78.710121 4284176473
-956.28729 -45.67638 78.66272 4284241751
-953.67169 -45.606178 78.678741 4284110683
-951.43005 -45.837021 78.593063 4283914586
-948.83978 -45.589863 78.854645 4283783258
-946.13318 -45.657368 78.75312 4284045401
-943.69391 -45.886642 78.756004 4283979864
-941.26434 -45.693493 78.776085 4283848533
-938.82635 -45.644947 78.644531 4283848280
-936.37396 -45.509682 78.54911 4284045141
-933.664 -45.389145 78.385498 4283914074
-931.73718 -45.350067 78.547066 4284176467
-928.48395 -45.603916 78.053192 4284045141
-926.21667 -45.769333 77.934868 4283783513
-922.55701 -45.11409 78.490662 4283717975
-921.26697 -45.081776 78.446068 4284241237
-918.04181 -45.000977 78.334534 4283717722
-913.48181 -46.415874 77.75193 4284044631
-912.32751 -47.262585 78.061996 4283518031
-963.37427 -44.931011 77.824524 4284504668
-961.27814 -44.805458 78.176476 4284439137
-958.89349 -44.692665 78.319092 4284242009
-956.13318 -44.381088 78.491043 4284242008
-953.66888 -44.265648 78.16642 4284176729
-951.16498 -44.026245 78.564606 4284111195
-948.86121 -43.974453 78.597923 4284307548
-946.30176 -43.746181 78.494896 4284111195
-943.73828 -43.867264 78.908241 4284176217
-941.25555 -43.938393 78.916931 4284044889
-938.81085 -43.976585 78.760979 4283979609
-936.2536 -43.850574 78.623634 4284175960
-933.71552 -43.72298 78.561066 4284045145
-931.14178 -43.678856 78.76358 4284110681
-928.76086 -43.760166 78.625641 4284110679
-926.33966 -43.754616 78.591942 4284176728
-923.72681 -43.745987 78.597267 4284045401
-921.17426 -43.666721 78.66507 4284045146
-918.72662 -43.59383 79.223633 4284045398
-916.42377 -43.602028 78.890884 4284045147
-914.09937 -43.652508 79.048805 4284176217
-945.93781 -42.293785 77.894867 4284701277
-944.86578 -42.314743 78.074097 4284636003
-935.56079 -41.779381 77.716034 4284242266
-933.81055 -41.631081 77.739449 4284308058
-931.34552 -41.886166 77.809158 4284307291
-929.03259 -42.24707 77.52623 4284176470
-925.81836 -42.475948 77.877602 4284110937
-923.88177 -42.427345 77.810585 4284373081
-920.75012 -41.437351 77.823959 4284373339
-918.96613 -41.595299 77.938408 4284176474
-916.41882 -41.460655 77.702026 4284045402
-914.1192 -41.740688 77.932617 4284110424
-928.78613 -39.802742 77.754395 4284309085
-922.84204 -38.824173 77.660797 4284046172
-920.95703 -38.764053 77.723633 4284308316
-918.90588 -38.58979 77.765587 4284242781
-916.32068 -38.349892 77.892532 4284242520
-914.53271 -37.98138 77.896057 4284307548
-915.01648 -37.491058 78.204346 4284373336
-914.36328 -37.480301 78.055809 4284242263
-985.11896 -85.409134 80.284973 4283192411
-984.47308 -85.392876 80.261757 4284109910
-978.66809 -84.923615 80.05011 4284175452
-973.93842 -80.193832 80.297729 4284175701
-971.17896 -80.750214 80.16275 4283978835
-964.08325 -80.375107 80.064804 4284044382
-953.61182 -80.056259 80.674194 4283781716
-978.21045 -78.254478 80.074104 4283847507
-977.06201 -78.197052 80.033813 4283585108
-973.95502 -79.54731 80.300293 4283782736
-964.09912 -79.771423 80.134079 4283716947
-953.63922 -78.817566 80.375374 4284044115
-948.58057 -78.023315 80.125648 4283978581
-947.21082 -77.845467 80.134766 4284241480
-936.17023 -78.183327 80.126495 4284242523
-934.77899 -78.61557 80.007141 4284504671
-950.5567 -76.598854 80.172234 4283913560
-948.7923 -76.553993 80.449883 4283913047
-946.32483 -76.512589 80.296013 4284175959
-944.23633 -76.996185 80.262886 4284110166
-937.89044 -76.76091 80.054504 4283913809
-936.68842 -77.114685 80.161186 4284110423
-948.18323 -67.967125 80.291351 4283782228
-946.35327 -67.630646 80.221931 4283585110
-943.77466 -67.565979 80.132751 4283585363
-941.84058 -67.517334 80.06572 4283782230
-938.70776 -67.717583 80.674217 4283847509
-936.50177 -67.703285 80.436852 4283979098
-934.02441 -67.730606 80.476135 4283782231
-945.42078 -66.315384 80.205444 4284305752
-942.68103 -66.246544 80.110779 4283781722
-941.58942 -66.307373 80.063431 4283782230
-938.57788 -66.369537 80.429726 4283978838
-936.33484 -66.493942 80.372589 4283848021
-933.69501 -66.174133 80.480423 4283847511
-931.27197 -65.758736 80.362946 4283716437
-928.61646 -65.779022 80.310646 4283913558
-926.22797 -66.191856 80.542686 4283978838
-923.81909 -66.273087 80.382622 4284044375
-921.27167 -66.389999 80.211357 4283848022
-918.73517 -65.993576 80.583504 4283979096
-917.27881 -66.013748 80.428932 4283782995
-911.32373 -65.708679 80.150284 4283979094
-933.35529 -64.332977 80.203316 4284044629
-931.96045 -64.313324 80.508415 4283913048
-925.61523 -64.637558 80.303047 4283913049
-924.54266 -64.492088 80.218285 4284109654
-920.83466 -64.469444 80.039825 4283979089
-919.08569 -64.311325 80.096695 4284044629
-917.30524 -64.735092 80.294495 4284045401
-910.82648 -64.179024 80.150169 4283978840
-909.94989 -64.034378 80.538452 4283716174
-975.74713 -57.818127 80.07737 4283912532
-974.32092 -57.801777 80.028412 4284043603
-929.01855 -59.338654 80.10881 4283847766
-926.37903 -58.820946 80.130753 4283913558
-923.72229 -58.793133 80.063339 4283979352
-922.08984 -58.931396 80.010597 4283454806
-916.87378 -58.463238 80.281723 4284044376
-912.65887 -58.411247 80.342148 4283979854
-911.59167 -58.412506 80.336937 4283782485
-975.7132 -57.235851 80.064117 4283978326
-974.4657 -57.192406 80.020737 4283912531
-953.41345 -56.517136 80.233505 4283978837
-930.73065 -55.554871 80.158752 4283978843
-929.17535 -56.069744 80.065712 4283913302
-925.84644 -56.144142 80.371254 4284044378
-923.58301 -55.555038 80.173195 4283913302
-921.29858 -55.341366 80.287483 4283782233
-918.68213 -55.100338 80.159431 4283979352
-916.68896 -56.095535 80.23307 4283716695
-913.08954 -56.444569 80.378929 4284175701
-911.78943 -56.778591 80.434593 4283978839
-932.87231 -53.862961 80.272919 4283781980
-931.24481 -53.856655 80.251419 4283847769
-929.12274 -54.370327 80.028755 4283913047
-925.92328 -54.11681 80.265724 4284044376
-923.55304 -53.847313 80.362335 4283782488
-921.36646 -53.938812 80.262993 4283913815
-918.76154 -53.649059 80.604439 4284044889
-916.18256 -53.563023 80.648544 4283979095
-913.76392 -53.616772 80.421135 4283979606
-912.05383 -53.752602 80.613632 4283979094
