# .PCD v0.7 - Point Cloud Data file format
VERSION 0.7
FIELDS x y z rgba
SIZE 4 4 4 4
TYPE F F F U
COUNT 1 1 1 1
WIDTH 1121
HEIGHT 1
VIEWPOINT 0 0 0 1 0 0 0
POINTS 1121
DATA ascii
-968.34198 -83.84671 88.809326 4284044374
-965.56671 -84.051918 88.910522 4284044628
-963.98987 -84.040833 88.73484 4283454552
-962.10876 -83.928139 88.947754 4284175195
-1030.6052 -55.606346 88.211365 4283715401
-1019.2599 -42.629822 89.879517 4284899682
-1004.2323 -42.812897 89.428345 4284046176
-998.15265 -42.960861 89.339172 4284702052
-993.33588 -43.02301 89.917664 4284505950
-986.95111 -43.686386 88.961365 4284702817
-1027.5646 -82.626328 90.048279 4283257169
-996.25635 -83.097694 91.880196 4283781975
-983.02466 -83.539993 90.842957 4283978574
-978.55737 -83.894226 90.063904 4283715668
-967.70203 -83.842819 90.114319 4283258967
-966.90955 -83.637093 90.193947 4283716952
-963.5788 -83.22818 92.170471 4284110167
-959.2854 -83.107597 92.070801 4284110163
-1027.746 -81.640373 92.278931 4283912017
-1026.5198 -81.722481 92.146126 4283912786
-1024.5573 -81.560303 92.168289 4283716177
-1028.3112 -78.02198 92.314636 4283583565
-1025.8837 -79.508591 92.210876 4283846997
-1028.3446 -76.910858 92.228371 4283845968
-1025.1143 -75.694283 92.350075 4283518542
-1024.1932 -75.535995 92.292946 4283518545
-1022.1454 -75.133438 92.330261 4283519313
-1018.1436 -75.010826 92.491577 4283715152
-1015.7516 -76.008499 92.003479 4283387474
-1013.5726 -75.949966 92.134468 4283519056
-1011.1882 -75.623459 92.267006 4283518541
-1009.071 -75.936523 92.24424 4283387730
-1006.2266 -75.883865 92.361816 4283584337
-1003.4398 -75.935776 91.900818 4283584337
-1001.3979 -75.890816 92.241936 4283387729
-998.62598 -75.940002 92.173592 4283584336
-997.22791 -75.732132 92.188797 4283453522
-992.92474 -75.271866 92.456482 4283584339
-991.01495 -75.223907 92.390396 4283649621
-988.94604 -75.171951 92.318817 4283125071
-985.59424 -75.22789 92.482544 4283190863
-981.61682 -75.128326 92.34491 4283650387
-1028.7319 -73.237709 92.135223 4283387723
-1026.1093 -73.527489 92.152161 4283321677
-1023.8286 -73.561417 91.920067 4283387215
-1021.4041 -73.865898 91.923096 4283453006
-1018.4048 -73.590294 91.928253 4283518288
-1015.6191 -73.796593 92.380241 4283649871
-1014.0303 -73.792679 92.326004 4283387982
-1010.142 -72.805794 92.333313 4283846224
-1008.4382 -73.632828 92.473991 4283453519
-1006.5303 -73.908524 92.413223 4283584336
-1003.7831 -74.808426 92.015121 4283584082
-1001.2865 -74.423904 92.310493 4283649871
-998.38672 -74.110046 92.152359 4283519057
-996.00128 -73.783516 92.175064 4283519054
-994.58087 -73.270859 92.106598 4283387986
-990.58685 -73.132744 92.485573 4283847503
-988.83649 -73.089142 92.425041 4283780688
-986.30774 -74.261826 92.156326 4283518542
-983.216 -74.84948 92.393761 4283322195
-981.78412 -74.813751 92.344147 4283978321
-975.88629 -74.141144 92.400681 4283584084
-973.84015 -74.116493 92.332787 4283649872
-971.77026 -74.130669 92.374756 4283715667
-968.10205 -73.564095 92.452682 4283846482
-966.21942 -73.425102 92.403198 4283584848
-963.60364 -73.308212 92.311935 4283584848
-961.96118 -73.113953 92.2519 4283715918
-957.47754 -73.165504 92.170433 4283519311
-1029.1594 -71.418655 92.168083 4283321679
-1026.5581 -72.244972 91.965675 4283190604
-1023.2682 -72.222115 92.013504 4283190861
-1021.444 -72.431358 91.846283 4283059278
-1018.8701 -72.314995 92.344147 4283519055
-1016.3017 -72.255302 92.371689 4283387726
-1013.8621 -72.013672 92.123055 4283387470
-1010.7651 -71.870926 92.054726 4283321934
-1008.7061 -72.011307 92.427505 4283387727
-1006.2347 -71.752525 92.357063 4283256654
-1003.9776 -71.26902 92.426781 4283519056
-1001.4971 -71.523811 92.365005 4283387731
-997.80286 -71.746269 92.287918 4283453259
-995.31616 -71.421112 92.176247 4283453521
-993.54779 -71.565285 92.120003 4283518801
-991.0874 -71.41124 92.102341 4283519061
-988.9184 -71.424133 92.185783 4283322447
-987.27954 -71.608696 92.465363 4283453774
-978.31158 -70.401299 92.476372 4283387218
-976.42963 -70.353996 92.411232 4283322195
-968.54773 -70.738792 92.421295 4283715921
-966.28925 -70.712662 92.340164 4283780945
-959.76971 -70.6418 92.216637 4283519569
-955.8772 -70.793724 92.246368 4283650130
-953.40607 -70.760231 92.12178 4283518801
-951.81976 -70.765877 92.279556 4283453268
-938.06195 -72.094383 92.425529 4283650132
-935.64716 -71.779999 92.419052 4283846741
-968.50391 -69.660561 92.31694 4283715413
-966.31769 -69.606171 92.225464 4283387729
-960.28448 -69.204559 92.251129 4283387732
-958.65295 -69.159142 92.170921 4283519314
-955.78217 -69.308739 92.06295 4283518546
-953.69666 -69.236526 91.904434 4283584337
-951.61432 -69.451614 92.199799 4283583826
-947.74286 -68.920532 92.495422 4283190874
-946.31348 -68.884148 92.445747 4283911767
-943.79828 -68.769531 92.422318 4283584851
-935.36328 -68.590523 92.26947 4283388499
-1028.4965 -65.560387 92.395973 4283190092
-1027.1956 -65.645859 92.381447 4283255629
-1023.1326 -65.449394 92.463783 4283518284
-1021.7384 -65.427704 92.415817 4283387472
-1019.0315 -65.306602 92.321045 4282928465
-1015.8495 -65.067314 92.207611 4283518804
-1013.9676 -65.131546 92.273445 4283453008
-1011.1119 -65.291786 92.39061 4283321938
-1009.5279 -65.283859 92.37793 4283453009
-1003.0054 -65.172119 92.246033 4283584591
-1001.7994 -65.164566 92.203865 4283256910
-998.92407 -65.242836 92.254547 4283650642
-996.04816 -65.153931 92.474304 4283322694
-993.24164 -65.144157 92.17627 4283650129
-1029.7698 -63.512115 92.49646 4283190348
-1023.7385 -64.521324 92.465263 4283518544
-1021.6765 -64.735336 92.399368 4283321935
-1019.048 -64.669266 92.308411 4283321938
-1015.5755 -64.418533 92.248993 4283387726
-1013.6312 -64.213982 92.26725 4283387726
-1011.2518 -64.251884 92.259354 4283387471
-1008.8464 -64.076027 92.239037 4283453262
-1006.6437 -63.578533 92.315186 4283322447
-1003.6443 -64.074928 91.598129 4283584593
-1001.1741 -63.872627 91.634071 4283518799
-998.72205 -63.859638 91.716515 4283584334
-996.28571 -63.887718 91.753029 4283452751
-993.78369 -63.807934 91.852875 4283388242
-991.08783 -63.873756 92.131798 4283453266
-988.70276 -63.650646 92.084229 4283191122
-986.26007 -63.317219 91.959061 4283322192
-983.6402 -63.249256 92.03524 4283322449
-981.26007 -63.250954 91.925766 4283453264
-978.73145 -63.32093 92.453354 4283387986
-976.48047 -63.065529 92.346169 4283453520
-974.04413 -63.037022 92.393341 4283059793
-971.25946 -63.067791 92.236557 4283387988
-968.72253 -62.722855 92.261505 4283256658
-966.7666 -63.174088 92.162788 4283650131
-963.68726 -62.68346 92.334908 4283519571
-961.2514 -62.615685 92.34726 4283322708
-959.82263 -62.570442 92.435516 4283846739
-1030.1635 -60.972305 92.334534 4283255896
-1029.0853 -60.710197 92.298447 4283387216
-1026.0917 -60.600632 92.213356 4283321675
-1024.7661 -60.126038 92.094177 4283780175
-1020.2674 -60.714104 92.243385 4283387731
-1018.9974 -60.522827 92.189941 4283256909
-997.55505 -62.490799 92.328369 4283388240
-996.59778 -62.462147 92.36528 4283583570
-983.31818 -62.407745 92.481567 4283518544
-980.20032 -62.28334 91.813965 4283322705
-976.13611 -62.135014 92.407074 4283518542
-973.82373 -62.309677 92.432053 4283387730
-971.32544 -62.130325 92.251862 4283519315
-968.94843 -62.190639 92.243469 4283322707
-966.72931 -62.065563 92.100838 4283518799
-963.64301 -62.358986 92.409088 4283519059
-961.03973 -61.948654 92.447426 4283650645
-958.83685 -61.924557 92.375511 4283650131
-956.10309 -61.921169 92.295685 4283126098
-954.90942 -61.970657 92.256042 4283519060
-947.73047 -61.3326 92.490997 4283846737
-946.28314 -61.314007 92.441277 4283781203
-943.7627 -61.177837 92.372742 4283650644
-942.07031 -61.132549 92.355186 4283584847
-1028.7177 -58.785744 92.1064 4283190350
-1026.0798 -58.723034 92.086388 4283321424
-1023.6691 -59.201904 92.231789 4283125072
-1021.4935 -59.467892 92.284241 4283517772
-1018.7139 -58.612854 92.367851 4283518798
-1008.1456 -59.735779 92.455261 4283649103
-1029.4041 -56.19783 92.247299 4283256145
-1026.1508 -56.285423 92.287773 4283518541
-1024.6921 -56.203747 92.240387 4283518800
-1020.0618 -55.428909 92.494904 4283322200
-1019.0727 -56.172367 92.476646 4283453263
-1030.001 -54.9104 92.202209 4283911760
-1028.7621 -53.739964 92.200851 4283321935
-1026.2753 -53.561142 92.325104 4283387217
-1023.9642 -53.542999 92.245949 4283518543
-1021.178 -53.64698 92.246506 4283322450
-1018.7762 -53.674679 92.212486 4283518800
-1016.1326 -53.494835 92.189758 4283584340
-1013.7669 -53.348679 92.185425 4283650128
-1011.6345 -53.431095 92.235634 4283649875
-1008.9561 -53.417648 92.144211 4283322700
-1005.8931 -53.282139 91.989433 4283518802
-1003.6619 -53.130215 92.101089 4283519315
-1001.0836 -53.083134 92.010994 4283519059
-998.91772 -53.028721 92.250626 4283322707
-996.60187 -52.984203 92.213585 4283453779
-994.00134 -52.746925 92.13501 4283847248
-991.58643 -52.76326 92.222389 4283977555
-988.07733 -52.825508 92.314934 4283781712
-987.17462 -52.744095 92.406151 4283256917
-982.50983 -52.514221 92.40271 4283061080
-981.80945 -52.631714 92.216385 4283912279
-975.50555 -52.660126 92.165306 4283912516
-973.75653 -52.615593 92.105141 4283454290
-1030.0906 -51.101784 92.243301 4283584078
-1028.6154 -51.262966 91.936913 4283453264
-1025.8173 -51.496464 92.266808 4283714895
-1023.5104 -51.478432 92.294136 4283387471
-1021.2735 -51.297325 92.415009 4283518799
-1018.7496 -51.270588 92.367546 4283519057
-1016.0924 -51.16851 92.291229 4283453520
-1013.6053 -51.225349 92.211311 4283584594
-1011.263 -51.270771 92.154503 4283519316
-1008.9304 -51.293068 92.049721 4283584849
-1006.4819 -51.617828 91.974892 4283650383
-1003.4715 -51.444298 92.414665 4283649876
-1000.7635 -51.129662 92.272621 4283584593
-998.60571 -51.194481 92.299759 4283715924
-996.27814 -51.220249 92.185707 4283715923
-993.82629 -51.325775 92.047874 4283715667
-991.6922 -51.370251 92.037514 4283584852
-988.26465 -51.636333 91.894966 4283584850
-986.17816 -51.47234 92.196808 4283453523
-983.76624 -51.593929 92.356735 4283519316
-981.16815 -51.412388 91.773285 4283715926
-978.71613 -51.654289 92.051987 4283584851
-976.29712 -51.428921 91.658348 4283716181
-973.85083 -51.385742 91.528717 4283716180
-971.23865 -51.253555 92.12426 4283716695
-968.34045 -51.139977 92.114494 4283519572
-966.41351 -50.928165 92.060783 4283716438
-963.67535 -50.991859 91.915489 4283847255
-961.51813 -50.97084 91.894844 4283782230
-958.81476 -50.930988 91.898224 4283781462
-956.27118 -50.974663 92.415901 4283913299
-953.67181 -50.66629 92.416382 4283716438
-951.36627 -50.48354 92.375061 4283913046
-948.80707 -50.396408 92.30204 4283913300
-946.0365 -50.321392 92.253227 4283847509
-942.68634 -50.43531 92.142532 4283716695
-942.49744 -50.660919 92.09259 4284371798
-1030.1575 -49.666473 91.816284 4283256145
-1028.8138 -49.236282 91.923851 4283452751
-1025.048 -48.070679 92.276695 4283519569
-1023.5644 -48.635574 92.196808 4283453263
-1021.283 -49.218025 92.279266 4283649874
-1018.789 -49.503513 92.190163 4283519060
-1016.2308 -49.430782 92.275818 4283453780
-1013.6449 -49.404667 92.234184 4283781201
-1011.1636 -49.442482 92.181114 4283781458
-1008.7375 -49.418915 92.115585 4283846997
-1007.4652 -49.365421 92.05484 4283978069
-1003.2306 -49.001553 92.41777 4283847246
-1001.1423 -48.900703 91.994804 4283519314
-998.67615 -48.977013 91.987396 4283650643
-996.11749 -48.953205 91.836754 4283716439
-993.68469 -48.940636 91.723358 4283846997
-991.32959 -49.001328 91.393517 4283847252
-988.80389 -48.638393 91.927147 4283650642
-986.24115 -48.56831 91.904083 4283781714
-983.75873 -48.520786 91.825714 4283781971
-981.18805 -48.614586 91.656219 4283716180
-978.67938 -48.344296 91.856476 4283716181
-976.27515 -48.560741 91.883575 4283585364
-974.16394 -48.452942 91.900459 4283847506
-971.26721 -48.790035 91.898094 4283979094
-968.9552 -47.999924 92.348991 4283913300
-966.00555 -48.547897 92.130547 4283847508
-963.68231 -48.660538 92.130981 4283847508
-961.49304 -48.909714 92.027237 4283847255
-958.67218 -47.733227 92.419258 4284043862
-956.91522 -48.514282 92.432785 4283716696
-953.65381 -49.349781 92.445625 4283978841
-951.48541 -49.24176 92.390076 4284110167
-948.57953 -48.971462 92.291199 4283781974
-946.32825 -48.65136 92.215401 4283782487
-943.51196 -48.4142 92.191681 4283913299
-1029.3192 -46.042061 92.08728 4283518796
-1025.077 -46.631805 92.366005 4283387474
-1023.858 -46.561291 92.270264 4283584848
-1021.0465 -45.856308 92.354187 4283781712
-1019.5875 -45.418766 92.337151 4283847250
-1013.2643 -45.315983 92.26973 4283454803
-1010.6842 -45.167416 92.31041 4283782483
-1008.5684 -45.16761 92.139122 4283650643
-1003.7239 -45.10376 92.478394 4283455059
-1001.9539 -45.918793 92.381744 4283650642
-993.19507 -45.61039 92.416206 4284110164
-991.46472 -45.967888 92.448761 4283716435
-989.04095 -46.085381 92.445511 4283847256
-978.04047 -47.282619 91.330841 4284109397
-976.34357 -47.280228 91.5998 4284044114
-973.5589 -47.24292 92.037933 4283978837
-971.34839 -47.30006 91.801117 4283848281
-968.68237 -47.146805 92.111 4283847248
-966.30914 -47.044014 91.989304 4283979097
-963.91559 -47.002884 91.865082 4283847766
-961.5249 -47.007595 91.812759 4283913559
-959.11627 -46.83987 92.152588 4283913046
-956.04651 -46.930313 92.46701 4283913560
-954.43982 -46.855579 92.393013 4283848026
-951.42383 -46.511433 92.354164 4284044116
-948.65649 -46.507736 92.252563 4284044886
-946.43866 -46.551052 92.190353 4283848024
-943.71521 -46.554913 92.04026 4284175450
-1028.9785 -43.962658 92.20961 4283715920
-1026.3057 -43.34206 92.393707 4283716697
-1023.7063 -43.343655 92.371437 4283913556
-1021.114 -43.72308 92.127663 4284044632
-1018.9677 -43.660393 92.089417 4283979865
-1016.3463 -43.913048 92.045395 4283979093
-1013.7505 -43.878815 91.705315 4284044886
-1011.3351 -44.16497 92.018631 4283913815
-1008.723 -44.097641 91.552979 4283913813
-1006.175 -43.842823 91.979721 4284110682
-1003.7056 -44.006016 91.96199 4284045143
-1001.3578 -43.949745 92.086403 4284044884
-999.08234 -43.82576 92.053047 4284045143
-996.42676 -44.156578 92.167267 4283979094
-993.68469 -44.12492 91.954979 4284110680
-991.30121 -44.0355 92.007385 4283914327
-989.06787 -43.997604 92.148079 4283979865
-986.29175 -44.126095 92.289032 4284176215
-984.68146 -44.077393 92.340897 4283979868
-942.67401 -43.777374 91.925171 4284439391
-935.04108 -44.078766 91.721252 4284636252
-995.9682 -82.590569 92.882042 4283716182
-994.146 -82.705521 93.274391 4284043865
-985.6925 -82.576797 94.003815 4284043602
-980.27344 -82.511124 94.891296 4283781716
-978.69293 -82.645561 94.087585 4283912528
-975.57098 -82.601936 93.829079 4283848281
-974.62402 -82.682091 92.884239 4284044628
-965.93268 -82.592957 94.3255 4283848270
-963.409 -82.685524 93.655533 4283781977
-961.1413 -82.64518 93.986938 4284044373
-958.45624 -82.821442 93.179497 4283847765
-956.44458 -82.770836 93.108437 4283913301
-953.28119 -82.566376 93.565796 4283520086
-952.48767 -82.546463 93.538391 4283716955
-1028.2817 -80.941628 93.050194 4283453263
-1026.1283 -80.829185 93.087944 4283453778
-1023.6461 -81.008034 92.936745 4283584592
-1021.1896 -80.979515 92.903748 4283650384
-1018.739 -80.921944 93.428604 4283650639
-1016.3384 -80.80896 93.5839 4283519057
-1013.8487 -80.764328 93.644913 4283519058
-1011.2084 -80.671165 94.044373 4283781457
-1008.7051 -80.636192 94.082558 4283715667
-1006.1562 -80.538132 93.987976 4283781460
-1004.0869 -80.702858 94.079391 4283519317
-1001.0967 -80.647446 94.460098 4283715663
-998.87152 -80.402084 94.459572 4283518803
-996.02991 -81.538567 94.083954 4283585104
-993.40875 -81.542992 94.269142 4283847252
-991.23639 -81.546005 94.406563 4283912785
-988.92041 -81.656357 94.268433 4283715919
-986.38751 -81.490494 94.24144 4283454034
-983.5766 -80.917953 94.658607 4283781457
-981.15259 -81.38163 94.76355 4283781709
-978.71161 -81.285828 94.359215 4283585103
-976.21802 -81.349594 94.299896 4283715920
-973.80792 -81.076683 94.011292 4283716177
-971.22357 -80.368706 94.513229 4283519572
-968.34698 -80.616699 94.510643 4283520085
-966.23224 -81.193512 94.25618 4283847253
-963.8313 -81.261917 93.741554 4283716180
-961.24762 -81.236275 93.634796 4283716438
-958.71954 -81.193687 94.051155 4283781972
-956.18896 -81.242126 93.989693 4283847250
-953.8526 -81.312263 94.202927 4283716179
-951.20184 -81.245399 94.716354 4283716180
-948.68091 -81.191124 94.668373 4283716179
-946.61163 -81.200119 94.770409 4283650646
-943.8161 -81.608376 94.573593 4283781971
-941.58307 -81.996758 94.400047 4283453781
-938.27478 -81.267868 94.350426 4283716177
-936.75238 -81.655891 94.380211 4283650134
-1028.5885 -78.63163 93.153534 4283518542
-1026.3282 -78.820839 93.082413 4283322190
-1023.7922 -78.815292 93.10096 4283387473
-1021.2013 -78.748848 93.407738 4283453265
-1018.6697 -78.723434 93.723923 4283518801
-1016.283 -78.715614 93.794037 4283584591
-1013.791 -78.648293 93.816216 4283649875
-1011.2428 -78.661583 94.471977 4283584594
-1008.6823 -78.696205 94.39666 4283650129
-1006.4059 -78.779587 94.263412 4283780946
-1004.1773 -78.702988 94.092133 4283453521
-1000.8722 -78.348007 94.052689 4283518800
-998.87708 -78.695839 94.186081 4283453264
-996.50775 -78.4077 94.381027 4283715662
-993.72675 -78.727127 94.569786 4283650130
-991.21875 -78.562813 94.475128 4283584596
-989.26227 -78.364906 94.518105 4283453520
-985.35364 -78.424522 94.573227 4283585101
-983.78754 -78.768875 94.491173 4283453777
-981.4632 -78.687279 94.883102 4283584591
-978.54681 -78.774002 94.830559 4283453009
-976.24249 -78.785133 94.681458 4283519059
-973.70392 -78.703568 94.737633 4283584593
-971.45007 -78.879028 94.731079 4283650388
-968.46545 -79.032654 94.633301 4283781715
-967.40979 -79.690994 94.629349 4283715665
-960.57373 -79.308098 94.860619 4283912790
-958.5802 -79.451256 94.60997 4283650640
-956.0061 -79.790947 94.080658 4283650131
-953.81708 -79.786613 94.246979 4283716178
-950.95093 -79.595207 94.951912 4283388243
-948.71906 -79.498032 94.881279 4283453523
-946.72827 -79.517181 94.808449 4283847510
-941.3692 -78.736214 94.932098 4283650383
-938.25751 -79.161118 94.648003 4283650388
-935.50543 -79.105606 94.958862 4283387979
-1028.6824 -76.043579 93.324043 4283387725
-1026.2811 -76.323051 92.771324 4283453006
-1023.7068 -76.333862 92.940208 4283453008
-1021.2322 -76.201141 93.32058 4283518798
-1018.6912 -76.228485 93.484344 4283518799
-1016.214 -76.347672 92.990364 4283453264
-1013.6976 -76.391373 92.785095 4283453266
-1011.2894 -76.624062 92.884209 4283453010
-1008.7966 -76.506447 93.027321 4283584338
-1006.2969 -76.835876 93.226425 4283584591
-1003.9824 -76.731148 93.215874 4283322194
-1001.0502 -76.810951 93.173759 4283388241
-998.87994 -77.129913 93.208321 4283584337
-996.18201 -76.404587 93.326324 4283387983
-993.88141 -76.35733 93.364807 4283584593
-991.30011 -76.292374 93.275513 4283650129
-988.72113 -76.234604 93.725906 4283387727
-986.17804 -76.238777 93.81337 4283453264
-983.69763 -76.083527 93.93808 4283518801
-981.31738 -76.127365 94.069572 4283519312
-978.76221 -76.070862 94.153351 4283518801
-976.33026 -76.175545 94.161751 4283453520
-973.80145 -76.158936 94.07856 4283584594
-971.38794 -76.076401 94.164963 4283650132
-968.65417 -76.150375 94.39122 4283584850
-966.25348 -75.8582 94.321198 4283650385
-963.6637 -75.324951 94.337013 4283453779
-961.96057 -75.10878 94.698746 4283781201
-957.30042 -75.06691 94.711121 4283977045
-945.89111 -75.225426 94.814484 4283584076
-1028.6853 -74.342819 93.245003 4283387213
-1026.4949 -74.390884 92.676003 4283517777
-1022.7798 -74.162376 92.760109 4283453013
-1021.0281 -73.895882 92.779907 4283453264
-1019.0073 -73.934677 92.89698 4283452751
-1016.8776 -73.832932 92.775482 4283583824
-1013.66 -73.7966 92.680862 4283518801
-1011.2125 -73.753685 92.580795 4283649872
-1008.9708 -73.92366 92.667618 4283715407
-1006.2041 -73.699982 93.002541 4283519057
-1003.883 -73.450676 93.340034 4283584339
-1001.2576 -73.365326 92.92054 4283387985
-999.01752 -73.236763 92.920456 4283453521
-996.09741 -73.738533 93.219269 4283453264
-993.59711 -73.751198 92.866508 4283453522
-991.40497 -73.731003 92.801147 4283584593
-988.79614 -73.942665 92.695328 4283584590
-986.30719 -73.33519 93.015831 4283584336
-983.74774 -73.687683 93.067055 4283453519
-981.1427 -73.664749 92.951859 4283519058
-978.68506 -73.621452 92.876511 4283453521
-976.69415 -73.520126 92.854782 4283453266
-973.82507 -73.608902 93.187836 4283715666
-971.12567 -73.805313 93.057312 4283715668
-968.81555 -73.832253 93.18235 4283715924
-966.20587 -73.981804 93.015007 4283387986
-963.58807 -74.25412 93.043274 4283453779
-960.97736 -73.960335 93.617638 4283781203
-958.75323 -73.807724 93.606125 4283519061
-956.29974 -73.826973 93.488991 4283519058
-953.83496 -73.401779 93.37854 4283519314
-951.34277 -73.399612 93.275986 4283649872
-948.73212 -73.311798 94.052933 4283715666
-946.18005 -73.612198 94.006584 4283780949
-943.73035 -73.412811 93.857002 4283780946
-941.13501 -73.29879 94.050117 4283715667
-938.60394 -73.314156 93.983711 4283650130
-936.38 -73.316368 93.901794 4283453778
-1028.6796 -71.058472 92.863068 4283321418
-1026.1045 -70.884712 93.668098 4283321677
-1023.7896 -70.87603 93.313553 4283452495
-1021.3291 -71.054825 93.030235 4283256398
-1018.899 -70.992851 93.065147 4283584078
-1016.2762 -70.940643 93.348557 4283256141
-1013.7452 -71.114952 93.284325 4283453004
-1011.35 -71.030243 93.251381 4283387471
-1008.7057 -70.864464 93.6054 4283518801
-1006.3624 -71.06311 93.494789 4283387985
-1003.7476 -71.28466 93.41864 4283519059
-1001.0717 -71.37236 93.257607 4283453261
-998.94354 -71.299858 93.225159 4283387986
-996.38977 -71.399765 93.332092 4283453265
-993.91431 -71.00779 93.315384 4283387729
-991.38123 -71.465782 92.918602 4283584341
-988.61298 -71.863586 92.589149 4283387727
-986.02496 -71.41452 92.977379 4283518800
-983.73566 -71.284393 92.967255 4283584337
-981.25684 -71.320518 92.82811 4283453522
-978.73492 -71.433342 92.855873 4283453266
-976.12756 -71.315346 92.770172 4283518802
-973.74182 -71.307152 93.056007 4283519059
-971.3446 -71.269348 93.218781 4283519315
-969.02374 -71.613136 93.067368 4283650387
-966.26208 -71.797882 92.84594 4283715669
-963.77338 -71.260735 93.256203 4283519060
-961.15656 -71.177773 93.290642 4283584852
-958.59845 -71.171318 93.312866 4283715667
-956.24554 -71.179947 93.244514 4283518802
-954.06635 -71.500938 93.086121 4283453777
-951.09698 -71.445816 92.970238 4283584594
-948.81818 -71.114685 93.427727 4283781205
-946.30731 -71.185455 93.216255 4283649873
-943.74036 -71.120735 92.917084 4283584852
-941.21741 -71.233665 93.33313 4283519056
-938.7785 -71.089142 93.441223 4283584850
-936.5636 -71.117218 93.619926 4283650132
-1028.8176 -68.730255 93.138184 4283452748
-1026.2471 -68.750824 93.258629 4283190093
-1023.6649 -68.686691 93.721954 4283387214
-1021.2691 -68.683823 93.66523 4283387216
-1018.782 -68.775818 93.528297 4283387216
-1016.2991 -68.760681 93.874199 4283256397
-1013.7313 -68.656555 94.230812 4283387214
-1011.1671 -68.664886 94.11306 4283256142
-1008.6479 -68.61837 94.254517 4283387474
-1006.5148 -68.782608 94.477745 4283518544
-1003.8375 -68.618118 94.69017 4283453262
-1001.5843 -68.53418 94.429565 4283453264
-998.78253 -68.714561 94.260201 4283387724
-996.21545 -68.699493 94.274971 4283387728
-993.6969 -68.686378 94.000175 4283387987
-991.87225 -68.611839 94.305389 4283256914
-988.85516 -68.515648 94.948471 4283584077
-986.24396 -68.929047 94.870544 4283518800
-983.90631 -68.537712 94.590958 4283387215
-981.23315 -68.584213 94.589798 4283715408
-978.72937 -68.568771 94.46566 4283387726
-976.22626 -68.625656 94.375969 4283453008
-973.93274 -68.916367 94.079414 4283649874
-971.2442 -69.675835 93.243179 4283650387
-969.09882 -68.713181 94.173439 4283846741
-966.68011 -68.012756 94.859375 4283322197
-963.87408 -69.10704 93.412178 4283387985
-961.37274 -69.472984 92.902893 4283715922
-958.4903 -69.126656 93.186081 4283584594
-956.95074 -68.798187 93.685547 4283387730
-953.25311 -68.945679 92.767822 4283715150
-951.07147 -69.102158 92.697838 4283584338
-948.85376 -69.116364 92.68512 4283519058
-946.30109 -69.080521 92.635941 4283650133
-943.73163 -68.983696 92.749214 4283650131
-941.224 -68.889885 93.209946 4283584593
-938.7193 -68.862 93.368668 4283519315
-936.47186 -68.882484 93.424484 4283584850
-1030.0055 -65.621002 92.930275 4283321930
-1028.9305 -66.584259 92.91291 4283321421
-1026.1251 -66.317703 93.069542 4283321424
-1023.8333 -66.371353 93.241714 4283190605
-1021.0648 -66.46228 93.264053 4283124813
-1018.6522 -66.344543 93.323441 4283256655
-1016.2272 -66.296661 93.415443 4283321934
-1013.7736 -66.380592 93.402542 4283321935
-1011.3011 -66.424156 93.357506 4283387471
-1008.7155 -66.327393 93.65329 4283584337
-1006.1562 -66.210777 93.973595 4283518804
-1003.7419 -66.366219 93.775017 4283453010
-1001.2196 -66.350067 93.590027 4283518543
-998.79425 -66.210472 93.560822 4283518799
-996.30957 -66.149658 93.885887 4283518543
-993.74329 -66.219086 93.623207 4283519057
-991.21082 -66.328911 93.389069 4283387729
-988.72491 -66.211182 93.649857 4283321934
-986.18713 -66.274063 94.082794 4283518798
-983.81659 -66.248604 93.979492 4283584336
-981.37201 -66.216141 94.318977 4283519056
-978.80835 -66.173271 94.469093 4283518798
-976.21344 -66.345238 94.603416 4283584593
-973.87421 -66.180626 94.498932 4283584594
-971.81891 -65.597336 94.631439 4283650642
-967.73712 -66.999588 94.975082 4283781460
-966.57983 -66.518974 94.866013 4283649873
-963.96521 -65.989349 94.615028 4283518803
-962.30603 -65.383865 94.440384 4283584847
-957.91565 -67.324341 94.845604 4283519059
-955.63135 -66.271164 94.950378 4283191635
-953.97284 -65.233467 94.90493 4283715667
-1030.0272 -64.445343 93.02108 4283190604
-1028.7285 -63.696579 93.050369 4283256141
-1026.2797 -63.710239 93.206932 4283321679
-1023.8843 -63.543335 93.360085 4283387215
-1021.1664 -63.671402 93.399185 4283256143
-1018.6516 -63.711319 93.399178 4283387728
-1016.3278 -63.622726 93.429535 4283453263
-1013.7018 -62.871048 93.368881 4283518801
-1011.48 -62.887497 93.30719 4283452749
-1008.6138 -63.495514 92.932396 4283584331
-1006.1437 -63.913265 92.841148 4283322192
-1004.2397 -63.349846 92.616257 4283387979
-997.96899 -64.716064 92.563232 4283912530
-996.0777 -64.517708 92.74511 4283387733
-994.18433 -64.224915 92.668228 4283715924
-992.24329 -63.804497 92.931694 4283584342
-988.65381 -64.249062 92.905746 4283191120
-986.12549 -64.538383 92.892601 4283452752
-983.71582 -64.448479 92.843575 4283322444
-981.14307 -64.207153 93.245728 4283322194
-978.82025 -63.812439 93.295334 4283387725
-976.26855 -64.029549 93.572517 4283584591
-973.70203 -64.066475 93.570457 4283519060
-971.27838 -63.968811 93.792259 4283584596
-968.71667 -63.664471 93.820641 4283518805
-966.03619 -63.922798 93.939575 4283518803
-963.69501 -63.882961 93.52195 4283453519
-961.33069 -63.636307 93.768219 4283322451
-958.88635 -63.445042 93.753639 4283519058
-956.24213 -63.50922 93.832108 4283584595
-953.85522 -63.668011 94.244576 4283453521
-951.43427 -63.011101 93.859634 4283387988
-948.75635 -62.948067 93.837997 4283519058
-946.18799 -62.76342 93.6259 4283388242
-943.60895 -62.852596 94.045898 4283650131
-941.3974 -62.835815 94.395203 4283322704
-938.60327 -62.637756 94.654266 4283453523
-936.44336 -62.7435 94.888138 4283454287
-1028.5432 -61.311924 93.223755 4283190860
-1026.2545 -61.383522 93.214302 4283321934
-1023.7559 -61.265537 93.309326 4283453260
-1021.4067 -61.281601 93.334869 4283256142
-1018.7846 -61.252857 93.197212 4283453520
-1016.1727 -61.238705 93.432335 4283387472
-1013.7026 -61.135235 93.244606 4283453007
-1011.2322 -61.358181 93.288887 4283453007
-1008.808 -61.324635 93.279778 4283256400
-1006.293 -61.178356 93.2733 4283453518
-1003.7703 -61.16811 93.198769 4283387984
-1001.264 -61.199497 93.109985 4283453008
-998.63824 -61.119682 93.537102 4283584080
-996.19739 -61.133438 93.851158 4283519057
-993.85767 -61.184967 93.77684 4283519313
-991.39709 -61.193398 93.796516 4283453265
-988.78937 -61.129894 93.636757 4283649615
-986.23779 -61.061871 94.024231 4283256400
-983.69061 -60.869217 94.467018 4283453266
-981.177 -60.963928 94.044144 4283453778
-978.67499 -61.158474 94.142059 4283518799
-976.60089 -61.067574 94.106865 4283387729
-974.12891 -60.908714 94.328285 4283453264
-971.20148 -60.694363 94.365829 4283715413
-968.77429 -60.93644 93.934036 4283584850
-966.11755 -61.344143 93.458725 4283649875
-963.62476 -61.521824 93.199509 4283650383
-961.27509 -60.872032 93.933151 4283519317
-958.62994 -60.697254 93.948151 4283650644
-956.50293 -61.689388 92.823311 4283388243
-953.71063 -61.632561 93.254707 4283518803
-951.27539 -61.733929 92.963188 4283388242
-948.86389 -61.697121 92.822441 4283650131
-946.15149 -61.870129 93.180954 4283388245
-943.59857 -61.745617 93.165321 4283584595
-941.00311 -61.532753 93.425583 4283650384
-938.57507 -61.429779 93.601189 4283519058
-936.27454 -61.452759 93.771202 4283781457
-1028.6772 -58.954041 92.778481 4283190351
-1027.3019 -58.796448 92.849693 4283321423
-1023.6617 -58.532375 92.880127 4283256142
-1021.1417 -58.538395 92.808464 4283584078
-1018.8135 -58.7486 92.892296 4283584591
-1016.2915 -58.683907 93.288841 4283387472
-1013.6803 -58.771275 93.211746 4283584081
-1011.1897 -58.838959 93.234123 4283518543
-1008.7196 -58.697605 93.163719 4283518798
-1006.3231 -58.723885 93.26738 4283518543
-1003.8497 -58.664501 93.293907 4283584079
-1001.2388 -58.785999 93.254623 4283322449
-998.7594 -58.756676 93.609406 4283519058
-996.15472 -58.848282 93.985962 4283649876
-993.69183 -58.74995 93.79834 4283584850
-991.28412 -58.78286 93.906342 4283584593
-988.8783 -58.688797 93.703659 4283518799
-986.28802 -58.716831 94.430893 4283453266
-983.78021 -58.701504 94.265083 4283584595
-981.21082 -58.766819 94.322197 4283649871
-979.10968 -58.699245 94.245872 4283518542
-976.12347 -58.46933 94.783363 4283715663
-973.99963 -58.565674 94.582832 4283715665
-971.49646 -58.653965 94.57859 4283650387
-968.85681 -58.744259 94.308487 4283519313
-967.02728 -58.64978 94.58432 4283715667
-963.5296 -58.693256 94.603027 4283584592
-961.2085 -58.825642 94.552406 4283650130
-958.76617 -58.794464 94.458862 4283715922
-957.24609 -59.01004 94.942413 4283781711
-950.31763 -57.555023 94.996277 4283584594
-948.68689 -58.096363 94.796944 4283585108
-946.67151 -58.512051 94.626945 4283781460
-943.79211 -58.815327 94.865219 4283650132
-940.99213 -58.430279 94.906601 4283715922
-938.73999 -58.361771 94.82399 4283650386
-936.88599 -58.580273 94.749199 4283584849
-1028.3186 -56.287941 92.762238 4283518030
-1026.3406 -56.192791 92.749451 4283518541
-1023.3587 -56.212944 92.832138 4283387215
-1021.2556 -56.273331 92.786896 4283321425
-1018.6345 -56.377308 93.112114 4283518800
-1016.3109 -56.291477 93.290726 4283518799
-1013.769 -56.340244 93.285995 4283518800
-1011.1892 -56.259541 93.549026 4283649617
-1008.6753 -56.217903 93.299591 4283453263
-1006.199 -56.152 93.264397 4283387987
-1003.7889 -56.333519 93.186279 4283649871
-1001.3427 -56.30711 93.194305 4283453008
-998.77533 -56.290436 93.447533 4283322192
-996.26117 -56.272598 93.803528 4283650128
-993.67963 -56.243927 93.832825 4283650131
-991.15375 -56.157623 93.852592 4283453775
-988.80865 -56.186073 93.911934 4283387728
-986.34918 -56.168404 94.585426 4283387984
-983.80603 -56.274208 94.55162 4283453521
-981.30316 -56.423046 94.569481 4283453521
-979.04388 -56.219273 94.267654 4283519058
-976.22552 -56.314678 94.417519 4283650131
-973.75214 -56.261398 94.511536 4283584595
-971.00134 -56.141251 94.552261 4283781455
-968.86212 -56.519562 94.564384 4283781712
-966.23096 -56.305618 94.649246 4283453520
-963.79205 -56.347336 94.627998 4283650384
-961.28082 -56.325935 94.520912 4283716177
-958.43781 -56.332012 94.145958 4283846993
-956.91742 -56.057907 94.756149 4283519315
-953.30719 -56.063469 94.730865 4283584849
-950.82281 -56.135181 94.663773 4283650131
-948.67316 -56.457977 94.662537 4283650386
-946.44434 -57.120106 94.720695 4283716178
-944.07104 -57.310551 94.929962 4283650388
-941.2135 -56.795391 94.873711 4283715922
-938.78003 -56.778687 94.769066 4283650130
-937.03979 -56.733887 94.729248 4283781454
-1026.532 -54.056965 92.66761 4283386958
-1023.331 -54.174442 92.566681 4283322190
-1021.3795 -54.837502 92.547386 4283256398
-1017.9952 -54.729286 92.625259 4283257167
-1016.3387 -54.844173 92.807213 4283322191
-1013.7827 -54.595894 93.014046 4283780945
-1011.0378 -54.144768 92.981194 4283584336
-1008.624 -54.011467 93.080177 4283453521
-1006.3938 -54.018421 92.996574 4283453011
-1003.6686 -54.364605 92.878654 4283584336
-1001.2972 -54.310146 92.798294 4283387726
-998.71472 -54.228359 93.10228 4283453268
-996.11938 -54.115879 93.225586 4283519058
-993.73956 -53.970032 93.285416 4283519569
-991.17908 -53.835644 93.245613 4283650385
-988.70215 -53.799873 93.604195 4283453519
-986.15485 -53.610317 93.723824 4283453778
-983.79816 -53.676178 93.906662 4283519571
-981.32733 -53.764076 94.100029 4283584596
-978.79895 -53.661194 93.973351 4283584594
-976.24963 -53.666615 94.332024 4283650385
-973.78589 -53.374413 94.436203 4283519314
-971.17554 -53.638748 94.3339 4283781460
-968.75354 -53.527084 93.944946 4283781458
-966.16986 -53.649609 94.42112 4283781460
-963.8277 -53.764259 94.509254 4283650386
-961.3324 -53.646034 94.690994 4283716179
-958.79486 -53.585136 94.330566 4283650644
-956.34473 -53.552887 94.626251 4283650389
-953.70459 -53.660618 94.606102 4283716180
-951.20752 -53.5882 94.727936 4283519574
-948.84247 -53.09613 94.594894 4283519063
-945.06165 -52.81086 94.993408 4283912789
-943.77356 -52.75573 94.948494 4283912784
-941.31757 -52.664448 94.86261 4283584852
-1029.4144 -51.199986 92.703949 4283256657
-1026.4399 -51.043087 92.619034 4283453264
-1024.1239 -51.078159 92.537155 4283650126
-1022.0507 -52.449051 92.501221 4283913546
-1018.6443 -50.997852 92.76844 4283519317
-1017.2747 -51.193001 92.784096 4282994514
-1013.8926 -50.945984 92.743118 4283518801
-1010.9902 -51.825928 92.664001 4283650644
-1008.5973 -51.255379 92.897179 4283715918
-1006.241 -51.102249 92.967476 4283715920
-1003.9112 -50.980579 92.579399 4283584595
-1001.7071 -50.993153 92.530762 4283518802
-990.45538 -51.274086 92.94751 4283781199
-989.09674 -51.044106 92.828255 4283519313
-986.17841 -51.10075 92.809586 4283715667
-983.61877 -50.839584 92.788673 4283650132
-981.08862 -50.782734 92.784279 4283584338
-978.91394 -51.081448 92.929947 4283650643
-976.3454 -51.430275 92.676613 4283781717
-973.33807 -50.185913 92.640381 4283978327
-971.37213 -51.320766 92.594658 4283782233
-968.93176 -51.257641 92.876343 4283781972
-965.86407 -51.712719 93.097618 4283782228
-963.75214 -52.142857 93.08683 4283978320
-961.14673 -51.848049 93.033936 4283650899
-958.84399 -52.081505 92.923561 4283847509
-956.25934 -51.418804 93.074425 4283716691
-953.82629 -51.789841 93.352242 4283716438
-951.14178 -51.673782 93.650482 4283781973
-948.62219 -51.628311 93.569199 4283716438
-946.20386 -51.63372 93.659866 4283847509
-943.72827 -51.361794 93.84127 4283716437
-941.20953 -51.210911 93.751831 4283781975
-938.87634 -50.872452 93.636597 4283585621
-936.35651 -50.930893 93.755547 4283650646
-1028.6837 -48.379139 92.773109 4283518546
-1026.2184 -48.756695 92.613251 4283518801
-1024.4661 -49.363239 92.540184 4283846481
-1021.3818 -48.259762 92.792175 4283649875
-1018.7787 -48.199314 92.879837 4283650128
-1016.2135 -48.11948 93.129105 4283715407
-1013.5811 -48.306171 93.373299 4283715664
-1011.2413 -47.963398 93.754715 4283715921
-1008.8643 -48.283962 93.450493 4283846997
-1006.2308 -48.767941 93.186691 4283715665
-1003.8146 -48.870483 92.886223 4283715921
-1002.3442 -49.015617 92.635414 4283584590
-998.86108 -47.613049 92.956444 4283846995
-990.20813 -49.825615 92.909393 4283191887
-988.94385 -49.558636 92.814148 4283585107
-986.51648 -49.710411 92.778648 4283847254
-983.47906 -49.657394 92.698769 4283585363
-981.14612 -49.59304 92.747902 4283847253
-978.64764 -49.611767 92.708076 4283716183
-976.40796 -49.569164 92.598534 4283782229
-973.28827 -49.120468 92.779587 4283912785
-968.66437 -49.123924 92.793999 4283847508
-966.47565 -49.16412 92.72937 4283847508
-963.64264 -49.007259 92.616539 4283847510
-960.98254 -48.647182 92.835861 4283716438
-958.74176 -48.712303 93.251312 4283978581
-956.2948 -48.77227 92.919891 4283913303
-953.85394 -48.618046 93.072746 4283847766
-951.29297 -48.56559 93.087402 4283978838
-948.78827 -48.614426 92.966537 4283978838
-946.19904 -48.570301 92.884727 4283716950
-943.73224 -48.669632 93.229256 4283847508
-941.16931 -48.535919 93.442902 4283913045
-938.72552 -48.457516 93.669861 4283913557
-936.24011 -48.663437 93.463089 4283847509
-1028.1541 -46.567059 92.695732 4283584850
-1026.3014 -46.302334 92.616844 4283519058
-1023.4487 -45.510586 92.558731 4283519058
-1021.4243 -46.495193 92.833374 4283716175
-1018.735 -46.386971 92.973434 4283715922
-1016.269 -46.213417 92.981384 4283716178
-1013.7838 -46.345959 93.353294 4283847251
-1011.2073 -46.306412 93.464531 4283650897
-1008.7614 -46.361107 93.41391 4283781716
-1006.2841 -46.221901 93.542183 4283782229
-1003.8149 -46.243584 93.462189 4283847508
-1001.2289 -46.267254 93.2817 4283847251
-998.74261 -46.280998 92.961014 4283913044
-996.19574 -46.328545 92.667564 4283781971
-993.71576 -46.357098 92.639183 4283913302
-991.15253 -46.192158 92.96653 4283847765
-988.8161 -46.137226 93.337097 4283782227
-986.31354 -46.022266 93.455322 4283847763
-983.77002 -45.988247 93.462318 4283716693
-981.22754 -46.070038 93.281013 4283847509
-978.77716 -45.91251 93.429543 4283781973
-976.07361 -45.844055 94.202744 4283847767
-973.72308 -45.820526 94.099213 4283979095
-971.35034 -45.794743 94.016899 4283979096
-968.90021 -45.704239 93.976334 4284044631
-966.10657 -45.425846 94.96405 4284110165
-963.61273 -45.582558 94.6306 4283913302
-961.21051 -46.157768 93.813278 4283978837
-958.50977 -46.268551 93.371971 4283913560
-956.20105 -45.96067 93.483551 4283848020
-953.60748 -46.143173 93.450546 4284044634
-951.17603 -46.245171 93.309036 4284175703
-949.01184 -46.321835 93.372681 4283913557
-945.97888 -46.119591 93.737343 4284044377
-943.83368 -46.307446 93.528419 4283979095
-941.21869 -46.418217 93.13942 4284044374
-938.62823 -46.466347 92.981384 4283913302
-936.14111 -46.443024 93.059822 4283978325
-934.72864 -46.589745 93.484962 4283715403
-1028.187 -44.242432 92.530251 4283584852
-1026.2069 -44.438236 92.595123 4283650645
-1023.757 -44.381729 92.544853 4283650644
-1021.2708 -44.846947 92.631622 4283650640
-1018.5136 -44.205101 92.730263 4283913559
-1016.2972 -44.57531 92.641228 4283978833
-1014.7374 -44.588959 92.568604 4283913300
-1006.5958 -44.856476 92.57196 4283782226
-1000.693 -44.827026 92.70607 4284044629
-998.53632 -44.555256 92.613632 4283913303
-995.88916 -44.440887 92.77565 4283848023
-994.69995 -44.719921 92.555847 4284109652
-990.85046 -44.806995 92.683899 4284044627
-988.48657 -44.483521 93.024666 4283913556
-986.37268 -44.653305 92.899223 4283651411
-983.71356 -44.486794 92.989449 4283913815
-981.27191 -44.49152 93.018188 4283979606
-978.67047 -44.426067 93.234802 4283979606
-976.22278 -44.389942 93.590553 4284175704
-973.67548 -44.354214 93.667603 4284045399
-971.33789 -44.45652 93.82766 4284373337
-968.87372 -44.468643 93.998436 4284045144
-966.336 -44.499462 94.74929 4283979609
-963.802 -44.428326 94.706017 4283914070
-961.19373 -44.584587 94.618233 4283979610
-958.41437 -44.647053 94.458733 4284045404
-956.27802 -44.461006 94.077919 4284307803
-953.60083 -44.602993 94.402977 4284111195
-951.11627 -44.652218 94.304054 4284110422
-948.84387 -44.678017 94.678932 4284241497
-946.37769 -44.765175 94.871689 4283914329
-943.52899 -44.564606 94.658585 4284111192
-941.35944 -44.715668 94.743828 4283979610
-938.83466 -44.43388 94.521194 4284438874
-936.30969 -44.685928 94.299942 4284110421
-1003.2123 -80.189728 95.120094 4283650134
-1001.6404 -80.238533 95.067535 4283519311
-997.63593 -80.457886 95.220703 4283912785
-996.16187 -80.559944 95.253807 4283716174
-993.78662 -80.297318 95.186829 4283846993
-991.09265 -80.38826 95.542999 4283978061
-988.40442 -80.397858 95.855293 4283453775
-985.96771 -80.831818 95.499413 4283650383
-984.22107 -81.602692 95.052444 4283847507
-981.815 -80.792046 95.021858 4283715917
-975.71155 -80.68042 95.280457 4283846737
-973.1507 -81.551163 95.27581 4283650645
-971.18854 -81.601303 95.217972 4283781976
-968.92542 -81.263412 95.762177 4283781972
-966.99841 -81.497032 95.730141 4283651158
-952.87659 -80.799576 95.014977 4283912783
-950.01367 -81.260468 95.033875 4283715922
-949.69696 -81.25251 95.022926 4283650642
-945.68414 -80.880333 95.617615 4283650644
-943.8642 -80.835541 95.550728 4283585108
-941.33582 -80.815735 95.612953 4283453780
-939.14026 -80.73938 95.434731 4283715922
-936.62488 -80.551193 95.459457 4283649874
-1005.6116 -78.4133 95.165642 4283780436
-1003.4594 -78.694336 95.205444 4283584591
-1001.6414 -79.095688 95.102806 4283650385
-997.90875 -79.400177 95.009995 4283453517
-995.88495 -79.329819 95.277 4283715665
-990.8764 -79.30217 95.49736 4283584594
-988.43146 -78.870041 95.544456 4283453520
-986.54761 -78.846573 95.487076 4283584334
-984.68146 -77.716805 95.004425 4283715919
-981.02454 -79.196808 95.126221 4283584849
-979.74744 -78.530609 95.18692 4283518800
-970.70148 -78.098282 95.292969 4283519060
-969.27527 -78.061256 95.25592 4283781200
-966.22852 -78.638725 95.58564 4283453522
-963.81085 -78.582634 95.529488 4283715922
-961.42151 -78.430382 95.427376 4283781204
-958.88568 -78.359879 95.700508 4283454033
-956.24927 -78.324585 95.355545 4283388242
-953.67163 -78.489624 95.413864 4283650387
-951.36072 -78.355873 95.668579 4283650391
-948.60309 -78.235214 95.779366 4283912533
-945.93726 -78.573143 95.917091 4283715921
-943.70087 -78.715179 95.670906 4283650386
-941.27655 -78.769684 95.532402 4283584594
-939.15033 -78.64743 95.639526 4283584851
-936.55542 -78.68792 95.8274 4283650130
-1005.3489 -77.484657 95.089233 4283780947
-1003.6029 -77.438957 95.029999 4283191635
-988.289 -77.332878 95.118736 4283780945
-986.59705 -77.290817 95.059982 4283649874
-980.25342 -76.955627 95.072708 4283453006
-979.80646 -77.037094 95.096008 4283845966
-970.30426 -76.704102 95.435989 4283321688
-969.29565 -77.268639 95.240204 4283715668
-965.88458 -76.996162 95.414978 4283846739
-963.70172 -76.485268 95.423744 4283584593
-961.27643 -76.302902 95.45903 4283781204
-958.84521 -76.215157 95.464294 4283650386
-956.34558 -76.20031 95.261429 4283649874
-953.79114 -76.119644 96.06076 4283584593
-951.27441 -76.294739 96.010422 4283584338
-948.73987 -76.320808 95.997704 4283650132
-946.22034 -76.278625 95.97261 4283453523
-943.7312 -76.168312 96.159958 4283584592
-941.16785 -76.095268 96.36171 4283650129
-938.63721 -76.204727 96.349594 4283650386
-936.47882 -76.188148 96.341904 4283453521
-958.42285 -74.75296 95.134521 4283126615
-955.40637 -74.988556 95.123291 4283780953
-953.83905 -74.606262 95.523857 4283650131
-951.27722 -74.694122 95.462128 4283584593
-948.8576 -74.550598 95.659462 4283650133
-946.34552 -74.689514 95.514046 4283453523
-943.54504 -74.613579 95.759781 4283715153
-941.24512 -74.440445 95.859451 4283519058
-938.70679 -74.521881 95.564903 4283519057
-936.50903 -74.556023 95.526543 4283518803
-1005.4201 -68.263939 95.074768 4283453521
-1000.555 -69.069839 95.048904 4283190862
-990.83514 -68.522209 95.114922 4283387982
-988.80542 -68.66877 95.131783 4283387727
-986.41241 -68.526505 95.047585 4283453265
-983.5769 -68.484306 95.829529 4283649362
-972.85455 -68.283447 95.628479 4283519060
-971.14862 -68.226639 95.545639 4283715921
-968.74371 -67.92762 95.19072 4283781458
-966.05194 -67.885063 96.385956 4283649870
-963.59937 -67.913101 95.372963 4283583825
-961.33368 -67.854256 95.495102 4283649874
-959.49854 -67.899109 95.094078 4283715405
-956.64124 -67.712929 95.100906 4283649872
-951.17407 -67.686325 95.67775 4283256657
-946.8974 -67.592896 95.361694 4283192407
-988.18085 -67.40905 95.084976 4283190868
-987.48553 -67.296585 95.058899 4283322196
-983.34918 -67.140663 95.678101 4283780688
-981.18713 -65.209656 95.099976 4283584595
-972.89105 -66.916939 95.413269 4283584590
-971.0108 -66.528633 95.398796 4283584850
-968.7276 -66.208076 95.298035 4283519057
-966.13849 -66.121544 95.744789 4283584592
-963.72809 -66.445442 95.337135 4283650130
-961.29547 -66.331841 95.462372 4283518803
-958.88049 -66.154915 95.42086 4283584595
-956.26477 -66.188354 95.494942 4283453521
-953.70001 -66.392181 95.625435 4283650132
-951.2193 -66.199608 95.997902 4283715667
-948.68488 -66.158768 95.759171 4283584338
-946.20203 -66.083466 96.005043 4283519059
-943.64612 -66.008392 96.367004 4283387985
-941.21326 -66.099899 96.033981 4283453264
-938.79919 -66.075172 96.185883 4283650131
-936.57861 -65.98159 96.132538 4283715664
-1015.8928 -62.817764 95.144409 4283387980
-970.50079 -64.781982 95.162056 4283780941
-968.67834 -64.714157 95.29084 4283584340
-965.66125 -64.529808 95.297981 4283322964
-961.21985 -64.670647 95.123459 4283584850
-958.74475 -64.615364 95.186302 4283518800
-956.51776 -64.560707 95.116905 4283388497
-952.66681 -64.603271 95.024017 4283912271
-951.20502 -63.996944 95.73877 4283650130
-948.72644 -63.936234 95.560379 4283584595
-946.16846 -63.887852 95.543945 4283519058
-943.69885 -64.031998 95.494034 4283519314
-941.04645 -64.029594 95.575775 4283519058
-938.66162 -63.881561 95.685806 4283650131
-936.38068 -63.80563 95.861397 4283519057
-980.97626 -61.08548 95.007324 4283192406
-978.73431 -60.730507 95.377213 4283584336
-975.453 -60.689739 95.270935 4283584595
-973.50562 -60.485889 95.360695 4283125587
-971.6991 -60.451572 95.249016 4283715667
-967.9906 -60.24102 95.182526 4283716174
-965.77301 -60.192448 95.211983 4283453778
-963.90729 -60.330368 95.137039 4283585106
-955.95563 -60.216866 95.510811 4283519315
-953.7392 -60.163807 95.388733 4283584593
-951.36328 -60.110447 95.21978 4283519314
-948.883 -60.049805 95.112755 4283650898
-947.40668 -60.01001 95.100037 4283650899
-980.70996 -59.004601 95.128998 4283125842
-978.10352 -58.812519 95.104729 4283649873
-976.19995 -59.416794 95.108353 4283584848
-973.29614 -59.041992 95.224007 4283388243
-970.7475 -58.703876 95.230835 4283781713
-968.03223 -58.626648 95.137672 4283519060
-965.87048 -58.726635 95.090279 4283649874
-964.33856 -59.412025 95.054985 4283387982
-957.58191 -58.41188 95.212143 4283781970
-956.09625 -58.780731 95.472855 4283584596
-953.65546 -58.700089 95.416206 4283519316
-951.28326 -58.701771 95.370537 4283453777
-948.91913 -58.808468 95.357658 4283585106
-946.13251 -58.919147 95.414291 4283519571
-943.81604 -58.731945 95.599899 4283715922
-941.4671 -58.908009 95.414345 4283584853
-938.73969 -58.967491 95.269821 4283650387
-936.19403 -58.69368 95.595146 4283715666
-980.65332 -55.033009 95.075485 4283453782
-977.95013 -56.30574 95.393982 4283650128
-973.32349 -56.249596 95.386589 4283650129
-971.43854 -56.110096 95.294525 4283585108
-968.75568 -55.931015 95.139572 4283912530
-966.44617 -56.33062 95.058777 4283584337
-964.91656 -56.519135 95.001343 4283778895
-961.19122 -55.973694 95.01487 4283650386
-959.56531 -56.210735 95.52417 4283978066
-955.914 -56.366661 95.416756 4283519058
-953.82501 -56.325626 95.339218 4283650384
-951.26324 -56.203926 95.279068 4283584851
-948.63818 -56.185776 95.252632 4283650385
-946.20178 -56.077332 95.278297 4283585107
-943.83392 -56.224792 95.690865 4283650644
-941.40436 -55.553864 95.471176 4283584851
-938.91321 -55.534203 95.292107 4283650385
-936.15356 -56.078724 95.532646 4283650386
-976.30853 -54.36414 95.005737 4283780944
-973.59149 -54.224354 95.263359 4283650641
-967.86554 -54.336105 95.045258 4283978065
-967.2901 -54.624954 95.03907 4283716179
-962.29028 -53.912155 95.00882 4283715922
-959.73651 -54.771683 95.336365 4283912530
-955.84424 -54.670006 95.311371 4283519314
-953.88306 -54.576694 95.264313 4283454034
-951.25031 -53.875549 95.297508 4283716181
-948.67316 -53.883057 95.33004 4283650387
-946.18732 -53.809074 95.311211 4283846995
-943.57416 -54.025227 95.700424 4283781971
-941.17963 -53.863541 95.336861 4283585107
-938.8208 -53.803734 95.38932 4283585108
-936.51678 -53.756744 95.525444 4283650386
-951.30243 -52.302525 95.141113 4283848017
