# .PCD v0.7 - Point Cloud Data file format
VERSION 0.7
FIELDS x y z rgba
SIZE 4 4 4 4
TYPE F F F U
COUNT 1 1 1 1
WIDTH 1121
HEIGHT 1
VIEWPOINT 0 0 0 1 0 0 0
POINTS 1121
DATA ascii
-997.40399 -106.14677 84.039825 4284833631
-1004.6334 -103.30371 84.082413 4284965476
-1001.6635 -104.31585 83.526062 4284834405
-1013.0379 -100.31421 83.999672 4284899168
-1011.6582 -100.65836 83.689354 4284703077
-1009.4434 -101.52908 84.270485 4284703074
-1018.8211 -97.937637 82.812958 4284833631
-1016.4352 -98.895432 83.305595 4284768866
-1013.9664 -99.848251 84.913452 4284637026
-1025.7625 -95.306396 83.926109 4284439899
-1023.5478 -96.119125 82.936462 4284899938
-1021.1014 -97.269875 83.645386 4284702563
-1032.6267 -92.827232 83.722595 4284244067
-1031.6984 -92.99131 83.13269 4284440161
-1027.7378 -94.625847 83.656555 4284899678
-1038.7023 -90.666527 83.897278 4284439899
-1036.531 -91.472557 83.840004 4284439384
-1034.2996 -92.191833 83.221741 4284045921
-958.84308 -120.57333 86.21344 4284899934
-955.72015 -121.55019 86.375587 4284637281
-970.55908 -116.20815 86.536133 4284505448
-1050.6538 -110.282 86.97522 4283714896
-985.97131 -110.45698 85.869476 4284769129
-983.53937 -111.44901 86.782906 4284834405
-1050.0437 -108.63493 87.013245 4283255890
-991.44568 -108.51689 87.241394 4285030754
-998.66199 -105.65746 86.385071 4284834150
-997.32141 -106.22897 86.226288 4284769894
-1048.553 -104.43724 86.782898 4283320653
-1006.7175 -102.59777 86.732056 4284572514
-1004.6871 -103.30735 86.204872 4284572511
-1001.1949 -104.58207 86.889923 4285096800
-1047.6383 -102.13971 86.796997 4283256142
-1047.3492 -101.18228 86.686279 4283321675
-1013.2302 -100.27608 86.357727 4284898917
-1011.2364 -100.94262 86.210274 4284637540
-1008.9019 -101.798 86.349731 4284834405
-1007.0522 -102.44427 86.539833 4285031009
-1046.1013 -97.806427 87.083801 4283583553
-1017.8389 -98.565308 87.149658 4284572001
-1014.0788 -99.890068 86.323257 4284768101
-1045.1956 -95.532639 87.00592 4283583567
-1025.991 -95.449471 86.721863 4284768094
-1021.7692 -96.98674 86.038734 4284571743
-1030.395 -94.038757 87.157288 4284833370
-1043.649 -91.530289 87.333435 4284109398
-1038.9366 -90.68103 86.169617 4284505691
-1036.9948 -91.285706 86.072205 4284242780
-960.47711 -120.2464 89.31356 4284702815
-959.39594 -120.43469 87.946594 4284834141
-955.69 -121.70449 88.519493 4284637282
-1053.7429 -119.63601 89.252167 4283253835
-963.27411 -119.21304 89.386047 4284441442
-1052.7379 -116.71828 89.05452 4283189582
-973.1955 -115.57835 89.854935 4284702304
-1051.4034 -113.31553 89.457558 4282796361
-978.12537 -113.50995 89.759674 4284899681
-977.16766 -113.84806 88.966003 4285030497
-1050.6263 -111.07298 88.879311 4283058759
-985.90576 -110.552 88.577049 4284638054
-984.28241 -111.21464 88.774269 4284834147
-1050.0903 -109.76796 89.487488 4283582797
-1049.7185 -108.42342 89.021645 4283189840
-992.64154 -108.76294 89.862122 4285555044
-991.28955 -108.82807 89.14399 4284899684
-1000.1036 -105.30238 89.594604 4284899942
-998.85028 -105.69078 88.612663 4284834404
-997.26038 -106.29588 87.83667 4284769635
-1048.194 -104.21997 88.850586 4283255375
-1006.9446 -102.6582 88.651955 4284768352
-1004.3014 -103.80744 89.706482 4284899941
-1001.7463 -104.52424 89.081085 4284769120
-1047.5376 -102.20279 87.81781 4283321678
-1046.9957 -101.17696 89.093086 4283452751
-1013.4203 -100.27543 88.704514 4284834148
-1011.1819 -101.03497 88.194153 4284834659
-1008.2622 -102.15199 89.140381 4284834143
-1007.2728 -102.40288 88.634979 4284375649
-1045.9181 -98.276711 88.888916 4283125067
-1018.6175 -98.45919 89.318703 4284636513
-1014.0938 -99.983597 88.279968 4284243816
-1045.2786 -96.50563 88.611351 4283518028
-1044.813 -95.601486 89.343719 4283386700
-1027.6656 -95.391563 89.67942 4284571228
-1026.1006 -95.767479 89.03598 4284636768
-1023.7382 -96.626892 89.414429 4284505695
-1021.8376 -97.214622 88.814842 4284703078
-1044.2963 -93.919838 88.766014 4283387464
-1029.8934 -94.198959 89.471191 4284702814
-1043.3271 -91.366745 88.773705 4283848022
-1038.7922 -91.375221 88.953568 4284373599
-1036.537 -91.854195 88.806305 4284046425
-1028.1417 -134.30876 92.479271 4283518029
-1050.3883 -125.23316 92.427856 4282862410
-1048.3866 -125.26252 92.273804 4283320903
-1045.8239 -125.96353 92.085945 4283059017
-1043.8354 -125.9202 92.026375 4283189832
-1041.1306 -125.59303 92.464439 4283125324
-1038.7072 -126.32035 92.075485 4283320907
-1036.4448 -125.72002 92.408012 4283321419
-1034.38 -125.5881 92.403862 4283255882
-1030.6813 -125.63277 92.241753 4283256398
-1029.0798 -125.75139 92.203552 4283321416
-1050.4335 -124.54883 92.143982 4282993483
-1048.5432 -124.47374 92.069672 4283124553
-1045.6644 -124.69418 92.214172 4282993996
-1043.7482 -124.53631 92.170135 4283189837
-1041.4216 -124.64017 92.454475 4283059022
-1039.1904 -124.42334 92.37355 4283452743
-1035.0847 -123.86736 92.363655 4283124298
-1034.1226 -123.5471 92.401382 4283255118
-1028.6237 -124.7025 92.218628 4283321674
-1027.3433 -124.56987 92.252197 4283517777
-1023.3257 -124.58152 92.469208 4283320398
-1045.2285 -120.78627 92.158836 4283058766
-1044.567 -120.40552 92.468719 4283059783
-1041.4813 -120.2735 92.362511 4282730572
-1031.609 -120.37033 92.248322 4283451979
-1007.5761 -121.23267 92.485229 4283060304
-1006.7152 -121.20937 92.455444 4283453003
-963.25922 -120.20727 92.278236 4284570207
-960.83649 -120.54172 91.427467 4284636511
-959.73029 -120.9788 91.548241 4284506466
-956.24811 -121.65247 91.127876 4284571490
-1053.4191 -119.55605 91.581375 4282992965
-1045.2733 -119.93608 91.903671 4283255626
-1044.4192 -119.9212 92.459229 4283320653
-1041.0093 -119.68082 92.423248 4282992971
-1038.7943 -119.43919 92.411423 4282927435
-1035.1538 -119.17864 92.343903 4282468943
-1033.7267 -119.07628 92.312119 4283190094
-1031.7212 -119.20775 92.140121 4283256139
-1027.075 -119.35435 92.400795 4282993481
-967.94122 -117.76385 92.308578 4284440678
-966.27527 -118.78193 91.374336 4284637026
-963.96265 -119.22545 91.669075 4284637027
-961.9917 -119.90643 92.03318 4284899170
-1052.6031 -117.22392 91.469398 4283059011
-1052.1641 -116.20741 91.600784 4283517263
-978.04456 -115.25328 92.351524 4284111706
-976.36237 -115.53378 92.173019 4284505182
-974.29108 -115.56622 91.228348 4284571746
-968.64453 -117.31158 91.769493 4284964448
-1051.1157 -113.39749 91.595795 4282993226
-1045.2332 -112.57266 92.489319 4283189831
-1043.4857 -112.70535 92.289925 4283321164
-1041.2334 -112.93981 92.221939 4283059018
-1038.6722 -112.88144 92.315086 4283124042
-1036.6477 -112.81441 92.189011 4283189836
-1034.3618 -112.68911 92.19519 4283517772
-1030.8484 -112.51587 92.122421 4283255633
-1027.6184 -112.53705 92.491089 4283387213
-1026.8207 -112.51712 92.463486 4283583563
-980.13208 -112.90441 91.83744 4284834919
-978.95947 -113.87021 91.861565 4284637023
-976.83521 -114.19971 91.557091 4284637027
-974.72559 -114.83756 90.584015 4284964710
-1050.3794 -111.5957 91.49688 4282993481
-1049.8896 -110.23596 91.368835 4283255112
-1042.9847 -112.05205 91.985229 4283320903
-1041.243 -112.18388 92.220909 4282993483
-1038.6462 -112.09795 92.268532 4283321167
-1036.0935 -111.98175 92.21521 4283190092
-1033.6061 -111.93666 91.630241 4283124560
-1031.173 -111.70453 92.168388 4283386701
-1028.7673 -111.72271 91.969421 4283190350
-1026.4382 -111.61466 91.974411 4283452494
-1023.651 -111.63982 92.337334 4283452241
-1021.2623 -111.42048 92.251434 4283714386
-1018.2908 -111.13237 92.130989 4283124562
-1017.4138 -111.28061 92.460876 4283386963
-1013.702 -110.62498 92.423149 4283452757
-1012.2148 -110.55188 92.370811 4283780689
-1003.7069 -110.43832 92.129761 4283715662
-986.15131 -110.69841 91.578712 4284965475
-984.43402 -111.33643 91.498169 4284768611
-981.63635 -112.25768 91.908112 4284768878
-1049.3363 -108.6968 91.649994 4283124046
-1044.3877 -107.73954 92.484642 4283452228
-1013.7712 -109.892 92.460892 4283584074
-1012.1769 -109.85206 92.405762 4283780947
-1003.2401 -109.77162 92.223602 4283454037
-1002.443 -109.75131 92.195862 4283455061
-993.3006 -108.3396 91.167458 4284572001
-991.44513 -108.99763 90.930801 4284703076
-989.47528 -109.50183 91.790977 4284703336
-1048.5127 -106.21145 91.654114 4283124295
-1000.7116 -105.23746 91.398567 4284834405
-999.14874 -105.86216 91.525154 4284637028
-996.6084 -106.95068 91.588242 4284899684
-1047.8143 -104.08534 91.11235 4282928461
-1047.218 -102.97408 91.740097 4283255115
-1006.0634 -103.18395 91.61805 4284899427
-1003.7543 -104.12811 91.530899 4284703076
-1001.6699 -104.74835 91.392097 4284703334
-1046.3369 -101.38779 91.636047 4283255630
-1044.1482 -101.31594 92.201759 4283125067
-1041.179 -101.41103 92.444855 4282993488
-1038.5453 -100.93412 92.345222 4283518029
-1035.9821 -100.77816 92.221458 4283190605
-1034.6075 -100.73428 92.202621 4283190606
-1027.9398 -100.25657 92.185951 4284109395
-1026.177 -100.20021 92.241852 4283913042
-1024.5742 -100.14791 92.297638 4283781715
-1013.6073 -100.4501 91.314278 4284702562
-1010.0023 -101.82248 91.951904 4284767083
-1008.374 -102.22241 91.190666 4284702562
-1045.725 -98.754341 91.215172 4283387215
-1044.5935 -99.757904 92.327148 4282863180
-1035.2194 -99.674706 92.082214 4283321170
-1034.6141 -99.515991 92.2192 4283190350
-1025.0624 -99.344696 92.460167 4284109394
-1024.5911 -99.344322 92.336967 4283781972
-1020.9263 -97.965019 91.420593 4284505438
-1018.912 -98.942665 91.612793 4284308831
-1016.6725 -99.28788 91.615189 4284571744
-1014.3157 -99.876266 90.058838 4284375656
-1045.1155 -97.005852 90.891785 4283321928
-1044.6588 -95.993446 91.45388 4283190098
-1041.1628 -96.42115 92.176086 4283125330
-1035.4204 -95.842003 92.063103 4283519317
-1033.6235 -96.095169 92.029869 4283781460
-1031.2606 -95.898781 92.004135 4283847768
-1028.7284 -95.770142 91.445297 4284307802
-1026.6207 -96.093567 91.096809 4284439904
-1023.6279 -96.787354 90.966888 4284702549
-1021.8147 -97.348778 91.527863 4284702309
-1043.6567 -93.662888 91.696114 4283518283
-1041.2473 -92.912476 92.172043 4283649875
-1039.0071 -92.903168 92.152634 4284044116
-1036.0885 -93.202652 92.133141 4283979350
-1033.6583 -93.687698 91.961853 4284045658
-1031.3037 -94.304893 91.162827 4284242779
-1029.0187 -94.700592 90.98143 4284571232
-1043.1613 -91.776283 91.40139 4283781713
-1041.2151 -91.401802 91.670189 4283716695
-1038.9091 -91.684982 92.062927 4284176215
-1036.5913 -92.090012 91.679169 4284307801
-1034.9896 -92.415588 90.517761 4284701534
-968.64465 -158.22537 94.46035 4283452496
-965.22461 -155.16707 94.914612 4282335567
-980.987 -153.52975 94.38884 4283518284
-978.18335 -153.41035 94.708969 4283649616
-976.62732 -153.53067 94.715134 4283387215
-971.01477 -152.50047 94.995056 4283714897
-965.92712 -153.19705 94.904381 4283452751
-964.97162 -152.65132 94.740356 4283321433
-991.21375 -150.34961 94.378838 4283584086
-988.52246 -150.47206 94.604744 4283518542
-978.27112 -152.40749 94.801956 4283387214
-976.63867 -152.35536 94.838875 4282928464
-965.61554 -152.33331 94.982117 4282928206
-964.43463 -151.90535 94.760361 4282862162
-998.5564 -147.968 93.601837 4283846225
-993.86816 -149.10477 94.560257 4283716435
-991.13824 -149.78981 94.696838 4283387474
-988.33679 -149.71199 94.715538 4283387471
-987.16016 -149.6848 94.681488 4283321422
-980.82233 -148.34799 94.9245 4283780941
-1003.3766 -145.35069 94.32695 4283452746
-1001.3718 -145.70126 94.393097 4283387473
-998.60797 -145.23859 94.907402 4283780176
-997.29602 -145.34988 94.887726 4283715405
-1010.8821 -142.8558 94.595299 4283125321
-1008.7003 -142.94965 94.938614 4283452750
-1006.103 -143.56392 94.734001 4283256142
-1003.7811 -144.00792 94.372536 4283453006
-1001.2616 -143.87459 94.603775 4283452753
-998.74493 -143.90652 94.698494 4283321679
-997.34912 -143.81366 94.507538 4283453262
-992.97522 -143.80051 94.756058 4283321681
-991.23248 -143.42009 94.652153 4283387215
-988.91168 -143.17934 94.858551 4283453002
-986.20905 -142.91554 94.996124 4283190863
-982.95337 -142.89804 94.385132 4283649101
-981.44507 -142.88278 94.58046 4283255884
-979.0741 -142.76172 94.454056 4283255625
-976.07019 -142.77991 94.691467 4283190347
-974.2066 -142.80872 94.7407 4283387216
-971.00708 -142.77145 94.538689 4283452746
-969.54095 -142.75421 94.681267 4283256142
-961.73608 -142.63589 94.982483 4283453015
-1016.0512 -140.69385 94.127533 4283452492
-1013.5432 -141.08145 94.585289 4283256653
-1011.1412 -141.2442 94.2286 4283256141
-1008.7852 -141.11861 93.871292 4283321419
-1006.2101 -141.08591 93.897758 4283255883
-1003.6924 -141.14772 94.03791 4283321678
-1001.165 -141.22719 94.088776 4283387216
-998.82043 -141.34282 93.912666 4283452749
-996.15643 -140.76207 94.16404 4283190351
-993.81427 -141.10791 94.158424 4283321680
-991.07886 -141.1132 94.706367 4283453007
-988.659 -140.85307 94.60836 4283453007
-986.27264 -140.84479 94.554405 4283518796
-983.71039 -140.7672 94.644485 4283321933
-981.36975 -141.35262 94.435165 4283452236
-978.63605 -141.77931 94.17511 4283321419
-976.25165 -141.32922 94.276306 4283190604
-973.79639 -141.40613 94.310364 4283321680
-971.16553 -141.58363 94.044228 4283124812
-968.84216 -141.59903 94.31546 4283255884
-966.26978 -141.43842 94.450226 4283583566
-963.90027 -141.32932 94.211967 4283321678
-961.49371 -141.23167 94.434196 4283518288
-1023.0423 -138.28909 93.680618 4283584334
-1021.2018 -138.43077 94.164253 4283846222
-1018.7451 -138.34331 94.599922 4283386957
-1017.0938 -138.76906 94.462753 4283256394
-1012.7526 -139.45503 94.735992 4283649096
-1012.2491 -139.08253 94.775085 4283321678
-1007.8865 -139.37439 94.813751 4283124558
-1006.3848 -139.29303 94.591064 4283583819
-1003.6232 -139.78244 93.825798 4282928207
-1001.1113 -139.63278 94.102951 4283518540
-998.76746 -139.51936 93.602875 4283453000
-996.36823 -139.45543 93.814728 4283321679
-993.73114 -139.33025 93.846718 4283387215
-991.23438 -139.32622 94.421608 4283453007
-988.66937 -139.20705 94.07283 4283321937
-986.18384 -139.06137 94.216461 4283255885
-983.74054 -138.98091 94.334198 4283256144
-981.5238 -139.20473 94.627693 4283256144
-978.44147 -138.60815 94.370659 4283321421
-976.27258 -138.83743 94.301491 4283190350
-973.86487 -138.60634 94.640732 4283190864
-971.2749 -138.28746 94.803719 4283386956
-968.6756 -138.42276 94.801056 4283255631
-966.19922 -138.50279 94.677757 4283125068
-964.34753 -138.64926 94.541847 4283059536
-960.2262 -139.62035 94.96698 4283584846
-959.73444 -138.03679 94.484322 4283518799
-1031.4277 -135.20624 94.041718 4283584075
-1028.0452 -135.84409 94.176537 4283649871
-1026.1515 -135.97791 94.088036 4283321678
-1023.7289 -136.09969 93.550598 4283452750
-1021.3092 -136.28508 94.101616 4283387214
-1018.8062 -136.24559 94.089111 4283321679
-1016.2636 -136.22495 94.164597 4283452493
-1013.6561 -136.24255 94.229446 4283321423
-1011.3629 -136.01613 94.108231 4283321679
-1008.8536 -135.59918 94.026237 4283190091
-1006.4677 -136.06331 94.40049 4283190350
-1003.6892 -135.54669 94.368118 4283321424
-1001.1272 -135.31006 94.354858 4283518032
-998.74359 -135.21785 94.556641 4283321422
-996.13324 -135.57358 94.187157 4283256142
-993.83661 -135.42282 94.277992 4283387217
-991.23004 -135.40501 94.552856 4283190609
-989.35364 -135.40106 94.613571 4283256399
-985.99609 -135.09395 94.452629 4283190352
-978.55927 -137.26189 94.956902 4283256397
-973.15448 -137.26353 94.927734 4283256140
-971.24896 -137.21553 94.86174 4283190604
-968.50433 -137.26166 94.718506 4283321681
-966.12268 -137.10559 94.479782 4283256398
-963.73682 -136.78703 94.544266 4283256144
-961.74451 -136.67857 94.695183 4283190866
-959.48523 -136.66566 94.456207 4283321934
-1037.9335 -132.53403 93.525452 4283387215
-1035.871 -133.02637 94.222588 4283321678
-1033.7397 -133.44312 94.583557 4283518032
-1031.295 -134.16499 94.42067 4283387468
-1028.8577 -134.57027 93.588181 4283321678
-1026.248 -134.28941 93.670479 4283452492
-1023.592 -134.04564 93.464188 4283190350
-1021.0693 -134.01956 93.478371 4283256399
-1018.748 -134.03227 93.60659 4283321680
-1016.2883 -133.92853 93.919128 4283452492
-1013.7125 -133.91885 93.755913 4283255887
-1011.2151 -133.79045 93.520836 4283190352
-1008.6462 -133.76346 93.346687 4283255884
-1006.2335 -133.8744 94.039368 4283255884
-1003.8706 -133.82703 93.696388 4283190351
-1001.3539 -133.69937 94.032249 4283321677
-998.72339 -133.70876 93.911835 4283256143
-996.19904 -133.68111 93.910622 4283321681
-993.67175 -133.73695 94.212601 4283452752
-991.28125 -133.79994 94.169579 4283321427
-988.85718 -133.7729 94.192169 4283321934
-986.30634 -133.8434 94.219795 4283518287
-983.72455 -133.9313 94.157593 4283386961
-981.1286 -133.41452 94.800003 4283387215
-978.69806 -133.33374 94.719513 4283255886
-976.25909 -133.4951 94.435944 4283322193
-973.9035 -133.37999 94.62822 4283321935
-971.39038 -133.22635 94.6213 4283321678
-969.59637 -133.53607 94.636284 4283452495
-966.26666 -133.02065 94.608337 4283387217
-963.98169 -132.87198 94.622711 4283453010
-960.84668 -132.77805 94.736115 4283649874
-958.89764 -132.67183 94.879189 4283387981
-957.07361 -132.54858 94.715607 4283321678
-1045.3177 -130.2814 93.87677 4283453267
-1043.8341 -130.33754 93.619301 4283386957
-1041.0303 -130.56143 94.525261 4283255885
-1038.7214 -131.41914 93.711159 4283255884
-1036.1995 -131.40031 94.042633 4283255884
-1033.783 -131.36931 94.233078 4283386956
-1031.4706 -130.89807 94.639168 4283386957
-1029.2714 -130.32196 94.86908 4283320909
-1025.4042 -130.37671 94.979584 4283255631
-1024.2919 -130.35165 94.920532 4283387214
-1020.892 -132.49376 94.869751 4283256911
-1013.3615 -132.3047 94.609192 4282993488
-1011.2961 -132.35818 94.238075 4282927947
-1008.588 -132.48155 93.486511 4283518545
-1006.1738 -132.2692 94.450966 4282797132
-1003.7963 -132.14899 93.826485 4283190609
-1001.1617 -131.80598 94.359703 4283321680
-998.80786 -131.75499 94.367874 4283387473
-996.13873 -131.92857 94.108879 4283387726
-993.53082 -131.7684 94.632858 4283256144
-991.133 -131.68831 94.148491 4283321934
-988.80096 -131.71748 94.155685 4283256402
-986.40442 -131.36267 94.631462 4283256400
-983.77795 -131.4953 93.950592 4283518031
-981.24768 -131.44504 94.208595 4283387472
-978.69165 -131.36525 94.127045 4283190606
-976.14075 -131.24443 94.100006 4283321936
-973.6239 -131.28749 94.175934 4283387471
-971.24835 -131.28986 93.901535 4283453006
-968.80859 -131.35771 93.962753 4283518800
-966.34668 -131.22699 93.950439 4283387728
-963.83832 -131.13339 94.32534 4283453262
-961.15363 -131.1684 94.235374 4283453009
-958.72418 -131.31314 93.975372 4283519057
-956.85834 -131.23036 93.68055 4283453009
-1052.9735 -127.68799 93.220978 4283649104
-1051.0656 -127.79289 92.909012 4283321675
-1048.6636 -128.17474 93.68882 4283518031
-1046.1372 -128.60364 94.365807 4283321675
-1043.8345 -128.84897 93.781334 4283255883
-1041.5073 -128.60872 94.455391 4283124557
-1038.5895 -128.07025 94.44059 4283190093
-1036.5947 -128.07571 94.533463 4283059023
-1033.6332 -128.77826 94.585297 4283255627
-1031.7524 -128.49165 94.464111 4283452493
-1029.0558 -127.56635 94.735634 4283452743
-1026.6237 -128.47882 94.940971 4283124812
-1023.1768 -128.91045 94.584534 4282928202
-1021.3192 -128.75575 94.39566 4283386702
-1019.3997 -129.22481 94.513092 4283322195
-1016.8343 -128.52202 94.991211 4283059533
-1014.5 -128.037 94.758759 4283321681
-1011.1323 -128.04045 94.939552 4283387216
-1008.6928 -127.87524 94.836021 4283255373
-1006.1456 -128.26151 94.766663 4283321931
-1002.2172 -127.68127 94.442871 4282863179
-996.19952 -128.4465 94.639664 4283387472
-994.05579 -128.6077 94.504311 4283518540
-985.2124 -127.84145 94.976662 4283191114
-983.25024 -128.56866 94.817207 4283256911
-982.1156 -128.96457 94.651794 4283584591
-977.65002 -129.71092 94.167297 4282470219
-975.90173 -129.66757 94.107132 4283059538
-973.50732 -129.95584 94.163589 4283256653
-970.91528 -129.63393 93.882004 4283519054
-968.75464 -129.22081 94.362015 4283518801
-966.25653 -129.55859 93.767372 4283387474
-963.66504 -129.40196 94.396271 4283519059
-961.29578 -129.5231 93.813202 4283518803
-958.61035 -129.25456 94.06823 4283650386
-956.77539 -129.23949 93.979515 4283584080
-1053.2886 -126.16299 93.085854 4283386702
-1051.2385 -126.29976 92.927559 4283321162
-1048.771 -126.47455 93.033607 4283190090
-1046.4911 -126.6929 93.250351 4283255883
-1043.7288 -127.20199 93.220757 4283058764
-1041.2618 -126.66459 93.079948 4283190092
-1038.9286 -126.95759 93.440865 4283386446
-1036.0848 -126.6983 93.455391 4283255372
-1033.6617 -126.3802 93.394386 4283386698
-1031.3009 -126.35009 93.302467 4283321421
-1028.6589 -126.30785 93.603737 4283190092
-1026.2498 -126.27091 93.701424 4283255883
-1023.7691 -126.32186 93.725189 4283386702
-1021.35 -126.21735 93.935326 4283190349
-1018.6362 -125.85229 93.935562 4283321166
-1016.1442 -125.78412 94.449165 4283255886
-1013.9404 -126.00028 94.526665 4283190350
-1011.387 -126.01369 94.672218 4283321676
-1008.7535 -126.15968 94.7108 4283256140
-1006.4186 -125.77258 94.631714 4283518288
-1004.0212 -125.68134 94.604836 4283256396
-1002.1078 -126.60812 94.42939 4283321164
-999.5636 -125.1897 94.608978 4283255895
-996.23859 -126.87892 94.845917 4283321680
-994.10303 -127.28165 94.405334 4283453258
-985.18085 -127.11506 94.84684 4283649866
-983.6311 -127.17844 94.888863 4283518288
-982.32501 -127.07369 94.536125 4283714898
-978.21179 -125.93044 94.98938 4283125335
-1053.4269 -123.84458 93.103271 4283321161
-1051.5115 -123.73656 93.205803 4283517767
-1048.859 -123.40586 93.584534 4283190346
-1046.2993 -123.50392 93.314728 4283124295
-1043.8906 -123.36495 93.367119 4283255372
-1041.1464 -123.39091 93.221077 4283320650
-1038.6288 -123.89292 93.191978 4283190345
-1036.2852 -123.74586 93.256401 4283059018
-1033.4572 -123.97638 92.960236 4283059020
-1031.3203 -123.73221 93.147812 4283190349
-1028.7585 -123.65028 92.888451 4283452491
-1026.173 -123.7943 92.949623 4283321675
-1023.8168 -123.71329 92.869774 4283255629
-1021.3118 -123.65089 93.191704 4283125069
-1018.8797 -123.64307 93.217072 4283124816
-1016.2487 -123.83572 93.485558 4283255887
-1013.6929 -123.86687 93.608475 4283255883
-1011.1545 -123.85175 93.732224 4283124813
-1008.8168 -123.85277 93.741982 4283255885
-1006.3158 -123.69567 93.944305 4283387468
-1003.7796 -123.72589 93.804428 4283321934
-1001.2137 -123.69549 94.140045 4283452752
-998.72797 -123.60728 94.187592 4283387472
-996.21643 -123.56194 94.289253 4283453005
-994.14862 -123.30987 94.337875 4283518799
-991.64984 -123.02049 94.499306 4283322192
-988.64984 -123.1731 93.800766 4283453519
-986.30804 -123.25774 93.948936 4283518801
-983.6496 -123.18533 94.123817 4283519054
-981.1665 -123.02787 94.16581 4283453776
-978.99048 -123.03592 94.536438 4283584848
-976.35303 -122.71458 94.505569 4283387727
-974.04431 -122.76052 93.895981 4283453779
-971.62573 -122.59263 94.648705 4283715922
-966.63263 -122.75771 94.717163 4283912278
-964.1131 -124.3989 94.9505 4283585361
-955.27313 -122.55696 94.919861 4284242017
-1053.118 -121.40518 93.772476 4283058765
-1051.1714 -121.32082 93.364784 4282993226
-1048.7762 -121.24619 93.499184 4283189834
-1046.3611 -121.28947 93.445511 4283321163
-1043.7363 -121.25246 93.589508 4283059019
-1041.2362 -121.26591 93.56842 4283124556
-1038.7126 -121.0601 94.075905 4283124554
-1036.3019 -121.12163 94.073654 4283189835
-1033.7472 -121.04122 94.144447 4282927691
-1031.261 -121.07202 94.08017 4283255371
-1028.7416 -120.96323 93.973633 4283321162
-1026.2252 -121.07907 93.383713 4283321420
-1023.7273 -121.08851 93.041557 4283386703
-1021.3002 -121.19475 93.126228 4283321167
-1018.7802 -121.27708 93.499107 4283321422
-1016.2685 -121.30873 93.587547 4283190350
-1013.7544 -121.21796 93.579941 4283321168
-1011.1779 -121.14803 93.88092 4283190606
-1008.7098 -121.17808 93.38546 4283321421
-1006.211 -121.55274 93.211327 4283256143
-1003.786 -121.41182 93.069977 4283453008
-1001.32 -121.2914 93.055916 4283256399
-998.74969 -121.29566 93.486069 4283321679
-996.19757 -121.3005 93.417427 4283453007
-993.66699 -121.39464 93.179459 4283584080
-991.25165 -121.39063 93.541481 4283584337
-988.82996 -121.33984 93.324615 4283584592
-986.32269 -121.25447 93.582146 4283387730
-983.73401 -121.17977 93.701004 4283650128
-981.21417 -121.19875 93.703621 4283519057
-978.65924 -121.28985 93.918839 4283650131
-976.16962 -121.40923 93.777214 4283650386
-973.77203 -121.32511 93.918411 4283650385
-971.30878 -121.25075 94.315788 4283715922
-968.80524 -121.28234 94.45488 4283716432
-966.2937 -121.2271 93.986099 4283847510
-963.7583 -121.09895 94.096581 4283979351
-961.33734 -120.92529 93.552147 4284242265
-958.40753 -121.33144 94.156723 4284505953
-956.18488 -121.8675 93.878471 4284374368
-1052.8419 -119.20044 93.595001 4283123779
-1051.2858 -118.66589 94.065048 4283058506
-1048.7432 -118.48582 94.306236 4283255629
-1046.3894 -118.61416 94.20488 4283255117
-1043.7594 -118.81949 93.554344 4283124044
-1041.4232 -118.60431 93.8526 4282993226
-1038.8113 -118.70045 93.755089 4282862156
-1036.2108 -118.75165 94.048225 4283124301
-1033.6833 -118.94543 93.377335 4283321164
-1030.8342 -119.14855 92.981018 4283190090
-1028.8118 -119.01348 93.032043 4283255886
-1026.2197 -118.95257 92.999245 4283189838
-1023.7806 -118.96744 92.962326 4283124555
-1021.1212 -118.93544 92.995003 4283321677
-1018.6666 -118.89883 93.150383 4283124812
-1016.3008 -118.8835 93.31736 4283255885
-1013.812 -118.76119 93.142006 4283386956
-1011.2619 -118.65233 93.47332 4283255884
-1008.6857 -118.75739 93.475166 4283386957
-1006.2402 -118.72856 93.97718 4283387472
-1003.7795 -118.77297 93.873123 4283453006
-1001.3447 -118.72725 93.413101 4283387728
-998.76373 -118.65943 94.010468 4283387473
-996.28949 -118.6751 94.037407 4283584593
-993.69287 -118.6481 94.113251 4283715664
-991.1264 -118.70447 94.007599 4283650384
-988.74493 -118.75279 93.592072 4283715921
-986.31226 -118.58916 94.26989 4283650386
-983.85205 -118.63549 94.19635 4283584849
-981.32117 -118.73399 93.915283 4283584594
-978.65649 -118.86662 94.133118 4283650643
-976.31311 -119.0285 94.130264 4283650387
-973.6347 -119.29888 94.283936 4283978324
-971.13684 -118.75639 94.012825 4284110166
-968.85461 -118.7779 93.76963 4284110939
-966.45166 -119.4714 93.028854 4284242525
-964.06519 -119.50771 93.195732 4284505443
-962.31348 -119.91253 92.728638 4284636512
-1051.0054 -116.3624 93.767761 4282993229
-1048.7418 -116.16606 94.464752 4283124302
-1046.293 -116.39239 94.638557 4283124299
-1044.1184 -116.41735 94.439507 4283190093
-1041.251 -115.8323 94.808495 4283124556
-1038.7935 -116.02502 94.780846 4282862155
-1036.5974 -115.53239 94.79142 4283059273
-1033.3475 -116.67641 94.556671 4283517516
-1031.3132 -117.30736 94.911148 4283386444
-1028.8484 -117.02227 94.76606 4283125328
-1027.181 -117.21178 94.70636 4283059020
-1020.753 -116.24377 94.823692 4283386444
-1018.9545 -116.51076 94.922333 4283386956
-1016.2579 -116.60157 94.823593 4283255886
-1013.6257 -116.30959 94.733459 4282993744
-1008.1444 -116.54066 94.287003 4283255889
-1006.431 -116.77933 93.829521 4283584081
-1003.7035 -117.22217 93.414871 4283584336
-1001.1387 -116.96967 93.374779 4283387730
-998.86108 -116.9362 93.420029 4283321937
-996.22137 -116.79369 94.001053 4283519057
-993.68066 -116.78626 93.483467 4283584594
-991.2196 -116.63937 93.402206 4283781203
-988.66669 -116.353 93.656395 4283716180
-986.16455 -116.32031 93.475357 4283715924
-983.78064 -116.42005 93.743118 4283585363
-981.31171 -116.26184 93.800018 4283650901
-978.80554 -116.29089 93.697838 4283978839
-976.25342 -116.50666 93.548012 4284044887
-974.37866 -116.55347 93.710907 4283848282
-970.89807 -116.99175 94.155136 4284636766
-969.20398 -117.27032 92.747849 4284571491
-1050.6122 -114.0298 93.180611 4282862153
-1048.7515 -113.73777 93.419044 4283058762
-1046.2684 -113.65556 93.519371 4283189833
-1043.7571 -113.70055 93.83857 4283124553
-1041.3073 -113.96947 93.788734 4282993228
-1038.7288 -113.88146 94.090019 4283189835
-1036.2883 -113.84496 93.858421 4283255372
-1033.6815 -113.51053 94.11528 4283386955
-1031.2396 -113.25307 94.067375 4283124812
-1029.0477 -113.30603 94.066986 4283255884
-1026.2017 -113.03324 94.211899 4283386960
-1023.5714 -113.05941 94.54808 4283255629
-1021.1053 -113.65758 94.657005 4283256141
-1018.8094 -113.36823 94.576546 4283387213
-1016.138 -113.22997 94.200706 4283387470
-1013.6432 -113.16167 94.727646 4283321934
-1011.2225 -113.19659 94.616348 4283453006
-1008.6928 -113.49329 94.568474 4283518284
-1006.7828 -113.42394 94.574707 4283518546
-1003.3499 -112.81001 94.587029 4283518545
-1001.7889 -112.76617 94.524452 4283715667
-995.24402 -112.72705 94.998596 4284043604
-988.66254 -114.05814 94.774269 4283978581
-985.9845 -114.43147 94.621361 4283912789
-984.03906 -113.51735 94.587311 4284110169
-981.10986 -113.48227 94.245911 4284308315
-979.03296 -114.01264 93.501045 4284243294
-977.05554 -114.15569 93.520851 4284571492
-1050.0483 -111.88457 92.58696 4283321423
-1048.6974 -111.15079 93.251228 4283058764
-1046.2959 -111.08964 93.500298 4283320652
-1043.8457 -110.99422 93.38063 4283255373
-1041.2262 -110.89225 93.09317 4283058765
-1038.7994 -110.70818 93.594048 4283321163
-1036.3234 -110.78533 93.479935 4283190095
-1033.8987 -110.61978 93.512405 4283321678
-1031.2811 -110.76967 93.406738 4283124813
-1028.748 -111.0146 93.034813 4283255631
-1025.5365 -111.24104 93.107285 4283452492
-1023.7064 -111.44119 93.110916 4283256140
-1021.2654 -111.54893 93.090477 4283452753
-1018.9946 -111.47484 92.982681 4283386960
-1016.266 -111.32563 92.958595 4283583826
-1013.7117 -111.45397 93.510376 4283386960
-1011.1746 -111.40355 93.724358 4283453011
-1008.7895 -111.28067 93.771965 4283584079
-1006.3342 -111.10867 93.872192 4283453264
-1003.8049 -111.23805 93.695152 4283584593
-1001.2107 -111.17957 93.858299 4283650387
-998.74249 -111.01896 94.348297 4283650388
-996.23645 -111.02226 94.202438 4283847253
-993.66656 -110.48872 94.357384 4283716434
-991.14062 -110.5411 94.410378 4283979607
-988.81995 -110.85943 94.398766 4284176731
-986.29309 -111.31173 94.141747 4284308831
-984.15015 -111.96557 94.078766 4284570975
-981.9162 -112.37215 93.85376 4284571738
-1048.4238 -108.98053 93.209106 4283255115
-1046.3423 -108.81792 93.357857 4283189837
-1043.8025 -108.78875 93.411652 4283190091
-1041.2479 -108.74528 93.690956 4283058764
-1038.667 -108.79682 93.926231 4283190090
-1036.2755 -108.83312 94.158302 4283190093
-1033.7721 -108.74409 94.050827 4283387212
-1031.2721 -108.63987 94.292503 4283518028
-1028.6969 -108.58586 94.31871 4283452495
-1026.2024 -108.61828 94.483559 4283321678
-1024.0232 -108.78121 94.643333 4283518286
-1020.8896 -108.52794 94.610191 4283584082
-1018.7908 -107.85638 94.768242 4283387468
-1015.9915 -108.70291 94.426178 4283518799
-1013.3769 -108.71422 94.287025 4283387985
-1010.8217 -109.36505 94.05835 4283453528
-1008.8071 -109.21822 94.119118 4283322192
-1006.6135 -109.19265 93.700638 4283453524
-1004.3898 -109.44989 93.803329 4283912787
-1001.0461 -109.17878 93.600784 4283716436
-998.69025 -109.40031 93.464821 4283913300
-996.03339 -108.97587 93.535271 4284110680
-993.88483 -109.03852 93.600182 4284373854
-991.28485 -109.46721 93.520485 4284374367
-989.37 -109.74227 93.30925 4284505958
-1048.0206 -106.43685 93.591919 4283255880
-1046.3859 -106.10159 94.137695 4283190091
-1043.7968 -106.15397 93.939468 4283320909
-1041.2129 -106.38164 94.212921 4283190094
-1038.7504 -106.49659 94.10997 4283386700
-1036.3595 -106.23869 94.354576 4283255884
-1033.7849 -106.18884 94.268791 4283256143
-1031.2893 -106.19051 94.312515 4283387213
-1028.8855 -106.38086 94.556534 4283387215
-1026.1936 -106.37353 93.957855 4283387468
-1023.8259 -106.07404 94.275597 4283387471
-1021.0919 -105.95026 94.488281 4283387730
-1018.924 -106.23513 94.190849 4283518800
-1016.0178 -105.9157 94.540771 4283715153
-1013.7328 -105.79754 94.635056 4283715920
-1011.1695 -105.8732 94.505066 4283715923
-1008.3968 -106.01692 94.514679 4283716180
-1006.0792 -106.03166 94.176659 4283847509
-1003.9177 -106.02516 94.227356 4284175704
-1001.2276 -105.65109 94.073654 4284308316
-999.06964 -106.20177 93.705711 4284636253
-996.39648 -107.24241 94.126022 4284635999
-1047.5946 -104.7037 93.203308 4283387470
-1046.1376 -103.73342 93.841255 4283190096
-1043.735 -103.7326 93.737938 4283321162
-1041.2319 -103.76384 93.93988 4283124302
-1038.8065 -103.66011 94.219627 4283255629
-1036.1558 -103.73028 93.968544 4283256139
-1033.7721 -103.66587 94.125435 4283321679
-1031.3113 -103.7278 94.364105 4283453006
-1028.953 -103.43613 94.438042 4283518802
-1026.2604 -103.71122 94.666618 4283453005
-1023.7954 -103.68716 94.660828 4283387470
-1021.1716 -103.63613 94.633583 4283519058
-1018.9448 -103.9656 94.459404 4283584336
-1016.1003 -103.92245 94.318275 4283585106
-1013.7227 -103.88152 94.511002 4283716177
-1011.5733 -103.75777 94.517288 4283716439
-1008.445 -103.63449 94.579453 4284110681
-1006.3074 -103.99215 94.126717 4284176990
-1003.7879 -104.56026 93.331642 4284570975
-1002.1115 -104.93113 93.415222 4285161056
-1045.8042 -101.50901 93.081268 4282993229
-1043.4329 -101.56487 92.822945 4283386703
-1041.1931 -101.34396 92.78508 4283124812
-1038.7428 -101.35755 92.920784 4283386959
-1036.3593 -101.47459 92.864822 4283452495
-1033.5193 -101.40617 93.227554 4283387216
-1031.1904 -101.25527 93.290466 4283387473
-1028.7767 -101.29297 93.084778 4283584337
-1026.2078 -101.23016 93.558731 4283650126
-1023.737 -101.25652 93.781059 4283584592
-1021.2693 -101.2145 93.789017 4283716178
-1018.8713 -101.15617 94.186707 4283781716
-1016.0719 -101.13711 94.281845 4284044374
-1013.6736 -101.22623 94.403023 4284110683
-1011.429 -101.83897 94.679985 4284176478
-1009.1636 -102.23576 93.548645 4284505183
-1045.345 -99.225937 93.095863 4283256140
-1043.6945 -98.639282 93.451553 4283190348
-1041.1669 -98.689766 93.489204 4283124812
-1038.7997 -98.558266 93.582947 4283256400
-1036.3558 -98.622711 93.801834 4283453006
-1033.6165 -98.544044 93.434334 4283387470
-1031.2626 -98.694031 93.162415 4283584592
-1028.7249 -98.644836 93.150749 4283649872
-1026.2241 -98.663269 93.437347 4283650387
-1023.6371 -98.537247 93.563972 4284044630
-1021.3914 -98.883003 93.038567 4284175962
-1018.6325 -99.511925 93.131294 4283979868
-1016.6752 -99.723473 93.182068 4284242785
-1043.5446 -96.340401 93.292137 4283321675
-1041.2238 -96.235603 93.234879 4283387211
-1038.6741 -96.28228 93.177345 4283453006
-1036.3376 -96.382652 93.221527 4283453265
-1033.9501 -96.569389 93.079559 4283584080
-1031.2996 -97.036423 92.850906 4283649874
-1028.7676 -96.923157 93.016937 4284109651
-1026.4377 -96.937431 93.687073 4284241241
-1023.8658 -97.121513 93.946762 4284373591
-1022.3777 -97.306641 93.485497 4284504933
-1043.1595 -94.255058 93.040726 4283453005
-1041.3339 -93.953667 92.903847 4283518541
-1038.7498 -93.849464 92.882706 4283584591
-1036.2668 -93.909309 92.819466 4283782229
-1034.2057 -94.144447 92.735611 4284044630
-1032.2024 -94.739578 92.599915 4284307283
-1042.6959 -91.699188 92.997108 4283519310
-1042.484 -92.110497 92.873131 4283322457
-1038.8629 -92.166656 92.784386 4284110164
-1037.2661 -92.207855 92.732887 4283783516
-968.76221 -157.65749 95.199181 4283518029
-967.271 -157.8586 96.379311 4283124557
-975.99713 -155.41844 95.339317 4283255887
-973.14874 -155.56248 96.395569 4283649100
-971.27106 -156.03038 96.663139 4283255888
-968.82965 -156.12759 96.705849 4283386959
-966.37091 -155.81819 96.839012 4283189587
-983.46375 -152.90793 95.888748 4283387473
-981.71008 -152.86566 95.179726 4283386954
-978.76282 -153.82098 95.627037 4283321420
-975.99725 -154.17868 95.532364 4283124559
-973.67285 -153.95509 95.720085 4283452751
-971.1853 -153.77974 95.656639 4283321164
-968.72021 -153.78271 96.038086 4283124814
-966.42603 -153.91029 95.905273 4283255886
-991.50891 -150.29797 95.52179 4283649868
-988.43616 -150.35722 95.144577 4283649102
-985.9798 -150.70941 95.947052 4283386963
-983.8017 -151.25859 96.116646 4283453008
-981.36359 -151.13843 96.184731 4283387215
-978.9068 -151.16154 96.160683 4283387214
-976.24518 -151.03969 96.307953 4283387217
-973.73767 -151.22176 96.219933 4283256143
-971.17859 -151.1494 96.063553 4283255884
-968.664 -151.26793 96.161102 4283255885
-966.21094 -150.97563 96.343987 4283190349
-964.52875 -150.85194 96.268112 4283190093
-997.54126 -147.75235 95.229553 4283977292
-996.10449 -147.8744 95.574936 4283256401
-993.7514 -148.14137 95.69706 4283649619
-991.28644 -148.51981 96.366974 4283453008
-988.80103 -148.38712 96.24604 4283321424
-986.11792 -148.76738 96.143478 4283452749
-983.64185 -148.83833 96.014336 4283387213
-981.20758 -148.77283 96.017761 4283321680
-978.84485 -148.80623 95.906754 4283321677
-976.33929 -148.71324 96.102959 4283125071
-973.82812 -148.86559 96.302353 4283387213
-971.23206 -148.86763 95.992172 4283321166
-968.74036 -148.78723 96.140266 4283386702
-966.18311 -148.763 96.490967 4283386959
-964.11066 -148.56989 96.511215 4283518029
-1000.5115 -145.45502 95.646622 4283518290
-998.44751 -146.08635 95.840302 4283518544
-996.13226 -146.2809 95.572678 4283453263
-993.75299 -146.21347 95.864975 4283321936
-991.37195 -146.11298 96.387154 4283518797
-988.80225 -146.20972 96.120155 4283452752
-986.24341 -146.33255 96.522766 4283387215
-983.68933 -146.18912 96.487511 4283256399
-981.17908 -146.13757 96.401077 4283256145
-978.69214 -146.06873 96.540138 4283321679
-976.27466 -146.12 96.754753 4283452749
-973.8299 -146.22649 96.735619 4283255885
-971.32983 -146.26208 96.688591 4283321676
-968.74371 -146.26643 96.502724 4283386705
-966.25061 -146.24695 96.89888 4283256140
-963.80908 -146.18816 96.613434 4283518287
-1010.9033 -142.68652 95.008911 4283714890
-1008.3636 -142.98804 95.265205 4283518542
-1006.4159 -143.02719 95.320518 4283321418
-1004.1862 -142.7231 95.467392 4283321167
-1001.4506 -142.82814 95.24456 4283452496
-998.97687 -143.06572 95.113373 4283583826
-996.04749 -143.81767 95.2342 4283584337
-993.97913 -143.80165 95.205811 4283321937
-991.06134 -144.15912 95.46347 4283453007
-988.80145 -144.09264 95.494606 4283452750
-986.3595 -143.93126 95.635315 4283255886
-983.8905 -143.85738 95.902786 4283321933
-981.19397 -144.08043 95.823837 4283386701
-978.5943 -143.76471 96.154457 4283387213
-976.18933 -143.90372 96.30854 4283190347
-973.64185 -143.8401 96.14962 4283387212
-971.35413 -143.85741 96.400986 4283255884
-968.82263 -143.64404 96.72583 4283452493
-966.2981 -143.17308 96.737267 4283256142
-963.76617 -143.67421 96.585617 4283518032
-961.93359 -143.46658 96.608772 4283452494
-1013.1886 -140.36826 95.083374 4282994255
-1011.6616 -141.59749 95.043167 4283321930
-1008.5839 -142.0025 95.364998 4283321419
-1006.1182 -142.04427 95.389763 4283321422
-1003.993 -142.12241 95.374779 4283386959
-1002.3054 -141.93556 95.225784 4283256144
-996.41943 -141.80605 95.150177 4283518034
-993.61084 -142.10008 95.121201 4283322192
-991.547 -141.48431 95.104263 4283453007
-988.53967 -142.09546 95.058441 4283453001
-986.0498 -141.91417 95.503914 4283190605
-984.23932 -141.76172 95.582985 4283584075
-980.96594 -140.37494 95.261299 4283452237
-978.91797 -140.58751 95.337288 4283255886
-973.48724 -141.56888 95.293373 4283387468
-970.69403 -140.17931 95.203125 4283321937
-968.24237 -140.77339 95.396782 4283255627
-966.40985 -141.37714 95.294006 4283321423
-963.55499 -142.22809 95.592163 4283452491
-961.80896 -142.24129 95.697083 4283387211
-1018.1302 -138.79869 95.223984 4283387467
-1015.8993 -138.69994 95.337379 4283583822
-1013.8886 -138.6908 95.343163 4283452238
-1011.2836 -138.41953 95.699089 4283452496
-1008.8228 -138.35641 95.683907 4283059277
-1006.2098 -138.16141 95.492218 4283386955
-1003.8187 -138.31999 95.735222 4283649617
-1001.3412 -138.03433 96.554382 4283451984
-998.75116 -137.90938 95.809288 4283452751
-996.4436 -137.96896 95.370918 4283453008
-993.78394 -137.73924 96.070488 4283583312
-991.44037 -137.84509 96.120461 4283649358
-988.87421 -137.84186 95.32309 4282994001
-985.36536 -137.64131 95.948486 4283124820
-982.66998 -137.98276 95.240967 4282863183
-981.08789 -138.56882 95.160614 4283321421
-979.40826 -139.1487 95.200233 4283452237
-973.13824 -139.5264 95.332222 4283321166
-971.10016 -139.47813 95.241264 4283321936
-968.71301 -138.95209 95.381874 4283452494
-966.11285 -138.97992 95.179916 4283321933
-963.64954 -138.67532 95.69239 4283453005
-961.40442 -138.58795 95.739693 4283452748
-959.74902 -138.28203 95.515724 4283452749
-1015.523 -137.19006 95.352768 4283452497
-1013.9009 -137.36349 95.073914 4283452495
-1010.6371 -136.85355 95.32515 4283321678
-1008.8348 -136.75992 95.297119 4283386696
-1005.9936 -136.74744 95.440491 4283387469
-1003.6476 -136.70282 95.817909 4283518285
-1001.1833 -136.49869 95.679024 4283452491
-998.76715 -136.28079 95.917351 4283452237
-996.39386 -136.61789 95.758339 4283452750
-993.79468 -136.44649 96.153572 4283321679
-991.29175 -136.53505 96.163399 4283321678
-988.65485 -136.38757 96.042122 4283321676
-986.21466 -136.1577 96.112343 4283321680
-983.64471 -135.95918 96.669197 4283452750
-981.34198 -135.83652 96.706108 4283518287
-978.8111 -135.74878 95.998817 4283386957
-976.4245 -135.93651 96.023674 4283256143
-973.91382 -135.89862 96.187927 4283452751
-971.27704 -135.6994 96.487854 4283387213
-968.76721 -135.83836 95.730598 4283321421
-966.25482 -135.55212 96.361443 4283321679
-963.51605 -136.22552 95.898308 4283387472
-961.08447 -136.25505 95.836014 4283518543
-959.16791 -135.75969 95.684669 4283453267
-1032.9858 -133.14645 95.15332 4283518029
-1030.994 -133.01285 95.289551 4283583054
-1028.9822 -132.89417 95.39595 4283386954
-1025.9192 -132.65683 95.911453 4283387209
-1024.3333 -132.62457 95.807335 4283059528
-1021.7822 -132.54242 95.842422 4282863437
-988.00354 -134.64316 95.216156 4283584341
-986.08685 -134.79877 95.3797 4283518549
-981.31158 -134.57443 95.389778 4283190353
-978.64893 -134.39392 95.119812 4283321422
-975.93542 -134.58086 95.636017 4283453007
-973.59381 -134.49409 95.621407 4283452496
-971.31641 -134.32669 95.87748 4283518289
-968.54443 -133.95885 95.68573 4283452749
-966.24597 -134.14339 96.133888 4283387212
-963.67822 -133.81172 96.270317 4283452754
-961.16675 -133.77107 96.17009 4283453009
-958.88257 -133.77275 96.117653 4283518546
-1036.0962 -130.03673 95.136627 4283386960
-1033.3385 -131.78909 95.148041 4283190349
-1030.9946 -131.86899 95.254135 4283255630
-1028.6208 -131.41693 95.603073 4283255887
-1026.2566 -131.33331 95.862396 4283452494
-1023.7894 -131.44975 95.632927 4283321421
-1021.398 -131.0663 95.906868 4283125070
-1018.8129 -131.14859 96.166725 4283321422
-1016.2291 -131.07327 96.045227 4283321166
-1013.7305 -130.8485 96.086876 4283124816
-1011.2474 -130.86678 95.948036 4283255628
-1008.7806 -130.73486 96.21595 4283255886
-1006.2512 -130.63086 96.47229 4283387215
-1003.8839 -130.44897 96.306061 4283386705
-1001.4207 -130.41985 95.661346 4283255887
-998.68176 -130.3588 95.863289 4283125330
-996.19159 -130.45941 96.09021 4283452502
-993.73242 -130.60069 95.358353 4283584082
-991.12158 -130.19547 95.761719 4283256402
-988.42365 -130.541 95.267677 4283125587
-986.20288 -130.51486 95.070511 4283321935
-984.77478 -130.42674 95.01889 4283911505
-968.99011 -132.34138 95.006134 4283190610
-962.79761 -132.30807 95.069153 4283256661
-961.81543 -132.2197 95.033859 4283714900
-958.19196 -132.46724 95.232605 4283453518
-1040.3158 -128.9568 95.445183 4283124813
-1038.7747 -128.95906 95.342285 4283190090
-1036.1067 -128.75023 95.565323 4283321676
-1034.4059 -128.44737 95.282806 4283452235
-1030.8558 -128.75594 95.168701 4283255628
-1028.6853 -128.73961 95.298286 4283321420
-1026.1782 -128.70198 95.785622 4283255885
-1023.7724 -128.66954 95.764626 4283190351
-1020.8881 -129.14966 95.50515 4283386704
-1018.6756 -128.81996 95.539207 4283321420
-1016.3414 -128.7509 95.466911 4283321419
-1013.6212 -128.88577 95.468826 4283255887
-1011.1956 -128.873 95.909782 4283255884
-1008.7338 -128.98573 95.762001 4283190095
-1006.3091 -128.79974 96.054893 4283386956
-1003.7509 -128.68372 95.680351 4283386958
-1001.3004 -128.68887 95.573059 4283321935
-998.80865 -128.75128 95.760902 4283453009
-996.25061 -128.97046 95.707588 4283387473
-993.67944 -128.8308 95.495079 4283583824
-991.16382 -128.74492 95.579391 4283387471
-988.78937 -128.66747 95.853065 4283583823
-986.32318 -128.73726 95.88578 4283321935
-983.96472 -128.756 95.405548 4283452753
-981.05469 -128.62239 95.578293 4283321676
-978.78955 -128.52492 95.78141 4283256140
-976.27863 -128.35431 96.349586 4283256396
-973.78064 -128.3373 96.308548 4283518546
-971.20734 -128.18405 95.765762 4283584077
-968.62579 -127.87461 95.917786 4283322194
-966.21259 -127.94466 96.35347 4283518802
-963.99103 -127.95663 96.226463 4283650130
-961.47321 -127.76046 96.719902 4283781203
-959.05243 -127.67064 96.530357 4283716175
-956.74426 -127.70864 96.527565 4283584602
-1025.6066 -127.34634 95.40799 4283190863
-1023.8912 -127.43621 95.472168 4283386702
-1020.1205 -127.02165 95.298096 4283124807
-1018.8508 -127.03875 95.198914 4283059534
-1016.2959 -126.96422 95.296036 4283190604
-1013.1805 -126.7853 95.504677 4283321162
-1011.3107 -126.58183 95.335625 4283255885
-1008.7401 -126.31261 95.354141 4283059016
-1005.9422 -126.52694 95.422401 4283321680
-1003.5667 -126.29916 95.38842 4283452495
-1001.1329 -126.08942 95.360008 4283387216
-998.83032 -126.29919 95.427544 4283387216
-996.34497 -126.07295 95.556969 4283453004
-993.78357 -125.97359 95.989227 4283518545
-991.22717 -126.16395 95.62278 4283518800
-988.60974 -126.3033 95.858894 4283518544
-986.27856 -126.26234 95.888435 4283453009
-983.73145 -125.97056 95.551735 4283453264
-981.17987 -126.24241 95.936356 4283518545
-978.89502 -126.2357 95.676971 4283518799
-976.26373 -126.14176 96.426575 4283519056
-973.71881 -126.33647 96.149223 4283453518
-971.22668 -126.46972 95.487587 4283584335
-968.58679 -126.28864 96.050575 4283518544
-966.20612 -126.11497 96.318123 4283453520
-963.70148 -126.19016 96.628502 4283519057
-961.3382 -126.30412 96.507767 4283453778
-958.83972 -126.31027 96.314949 4283584852
-956.39075 -126.14644 96.821327 4283584851
-954.76697 -125.47002 95.944054 4283453522
-1043.4612 -122.58828 95.15786 4282993997
-1010.5366 -124.9567 95.155556 4283451978
-1009.9008 -124.94019 95.133667 4282796616
-1000.5035 -124.98366 95.112717 4283387214
-998.43652 -124.7524 95.196709 4283322195
-996.26343 -124.71887 95.297119 4283452491
-993.4884 -124.04343 95.532532 4283453263
-991.1936 -123.91244 95.464615 4283453264
-988.82819 -124.21421 95.73085 4283518802
-986.16736 -124.41576 95.803711 4283518547
-983.70447 -124.31382 95.845528 4283518801
-981.22571 -124.07381 96.405548 4283518801
-978.63977 -123.98079 96.031395 4283584334
-976.34747 -123.76855 95.970009 4283453267
-973.77405 -123.90228 96.181511 4283453521
-971.26489 -123.69031 96.376114 4283584592
-968.75446 -123.64919 96.370239 4283650131
-966.14923 -123.78291 95.625694 4283780947
-963.66333 -123.77271 95.963486 4283716179
-961.17493 -123.72803 96.207367 4283716181
-958.79944 -123.72563 96.573486 4283716182
-956.31238 -123.75609 96.562263 4283847508
-954.71906 -123.77531 95.779579 4283913040
-1043.4839 -121.79415 95.119453 4283124553
-1039.9784 -121.86349 95.000916 4283518028
-1012.5493 -120.86888 95.161865 4283452240
-1011.7017 -120.8476 95.132507 4282862926
-968.85675 -121.4683 95.05162 4283519570
-965.4375 -122.31537 95.379402 4283715930
-963.5556 -122.27686 95.408981 4283847252
-961.20428 -121.72403 95.703934 4283979097
-958.69604 -121.90553 95.89698 4284176217
-956.59332 -122.22614 95.682915 4284242524
-1040.3735 -117.85323 95.23111 4282469201
-1037.6658 -118.11152 95.082153 4282993736
-1034.5181 -117.56113 95.339134 4282600524
-980.16895 -117.69156 95.061218 4283519316
-979.25421 -117.96456 95.041954 4283781206
-975.55164 -117.74384 95.781372 4283912275
-973.80383 -117.96349 95.371223 4283781716
-972.21521 -117.9622 95.488708 4283126615
-1046.8025 -115.95834 95.286949 4283125326
-1043.4972 -115.98128 95.245018 4283255626
-1041.1899 -116.43076 95.197815 4283124550
-1038.4862 -116.19025 95.178345 4283059274
-1036.1309 -116.44162 95.264229 4283124297
-1034.0612 -116.10059 95.407433 4283189579
-1031.3195 -115.98679 95.237648 4283124812
-1028.7465 -115.95741 95.150093 4283255630
-1026.1255 -115.93374 95.609985 4283255886
-1023.6059 -116.09307 95.673714 4283255885
-1021.6122 -115.97797 95.421104 4283125069
