# .PCD v0.7 - Point Cloud Data file format
VERSION 0.7
FIELDS x y z rgba
SIZE 4 4 4 4
TYPE F F F U
COUNT 1 1 1 1
WIDTH 1036
HEIGHT 1
VIEWPOINT 0 0 0 1 0 0 0
POINTS 1036
DATA ascii
-1064.442 -29.49148 30.862833 4285951083
-1001.2676 -53.921024 33.252705 4284766543
-1000.9844 -51.071304 33.598694 4284504929
-1000.1251 -44.433273 33.635132 4284634957
-999.85663 -40.740814 34.183899 4284179554
-999.53705 -39.24704 34.635193 4285093973
-1020.4794 -33.894073 34.753448 4286083188
-1015.6989 -34.102592 34.676758 4285756785
-1014.3059 -34.891773 34.831299 4286214514
-1063.7961 -30.096634 33.532288 4285492585
-1060.9414 -30.192627 34.568115 4285098357
-1083.4688 -27.992065 34.159462 4285097831
-1081.6273 -28.077726 34.942089 4284966503
-1078.7837 -28.105585 33.82341 4285228386
-1073.4575 -28.668686 34.333477 4285098595
-1066.5924 -29.24897 34.620525 4285557100
-1095.5417 -26.599005 34.152409 4284703330
-1094.7837 -25.86528 34.874054 4284900448
-1090.1881 -26.465942 34.495636 4285032038
-1089.6772 -26.273937 34.74807 4285097061
-1083.8693 -26.435555 34.260212 4284900451
-1081.7372 -26.80743 34.761276 4284966503
-1078.9208 -27.141907 33.905128 4284965987
-1002.3159 -63.473434 35.285645 4284897362
-1002.1345 -60.920528 35.743855 4284637021
-1000.9595 -49.797836 35.124695 4285162085
-1096.9065 -44.574905 37.385132 4285886573
-1014.5775 -35.038712 36.094971 4286017650
-1028.504 -33.544296 37.417664 4286149230
-1026.7982 -33.663727 37.413483 4286345847
-1023.0436 -33.769081 36.824577 4285886068
-1020.8698 -33.907452 36.131954 4285952114
-1018.247 -34.231522 36.347073 4285887089
-1016.6921 -34.347828 36.165829 4285952113
-1013.5555 -34.626083 36.287476 4286017393
-1066.634 -30.292046 37.273529 4285952630
-1063.8607 -30.36499 36.679787 4285951602
-1060.7656 -30.44857 36.191742 4285361268
-1058.1084 -31.106651 36.950775 4285821299
-1056.4425 -31.175369 36.513844 4285755507
-1052.9409 -31.436625 36.742397 4285755247
-1049.3304 -32.12207 37.455078 4286281337
-1047.0021 -31.449543 36.967968 4286147952
-1035.698 -31.703796 37.497437 4285362026
-1093.9099 -27.667377 36.140404 4285491049
-1088.7754 -27.965139 36.293774 4285295212
-1086.0548 -27.92606 36.796261 4285426025
-1083.7173 -27.812639 35.619049 4284966502
-1081.0911 -28.233391 36.086891 4284966504
-1078.8145 -28.655415 35.849064 4285163109
-1076.2727 -28.859476 36.209904 4285557357
-1073.6969 -29.089426 36.295826 4285623405
-1071.5983 -28.914242 36.925781 4285294955
-1069.2019 -29.146446 37.464966 4285819755
-1066.8232 -29.186157 37.086689 4285491567
-1063.4647 -29.946564 36.641296 4285754222
-1093.7146 -26.501129 35.637115 4285031525
-1091.3595 -26.455431 35.947296 4285097576
-1088.4 -26.336372 35.937389 4285162596
-1086.2119 -26.255821 36.658978 4285031780
-1083.7468 -26.492699 35.517387 4285097058
-1081.0106 -26.844452 35.409779 4285097574
-1074.0282 -70.470657 39.714661 4286872703
-1070.0272 -70.796318 39.578491 4286610299
-1068.6469 -71.255997 39.620056 4286610556
-1097.1173 -51.16642 39.585541 4285688432
-1096.6837 -45.038574 38.835815 4285689455
-1096.8171 -44.700272 37.97699 4285689452
-1021.8521 -35.00177 39.810852 4286347387
-1018.3914 -35.151554 38.906006 4286018680
-1015.4005 -35.517746 39.601685 4286084471
-1013.9451 -35.340729 38.291599 4286017908
-1010.9598 -35.999603 39.939655 4286084978
-1008.8586 -36.133804 39.665771 4286149755
-1006.2838 -36.291359 39.275761 4286345848
-1003.5306 -36.391556 39.84893 4286345844
-1046.6389 -32.505211 38.848419 4286018674
-1043.0039 -32.774456 39.474159 4286019193
-1040.8856 -32.867149 39.556511 4286150264
-1038.5812 -32.943157 39.235901 4286215286
-1036.1936 -33.115421 38.731487 4286017909
-1034.1416 -33.216476 39.388859 4286018165
-1031.2723 -33.69223 39.15134 4286083960
-1027.8164 -33.767269 38.441429 4285624695
-1026.2686 -33.885689 39.042377 4286084215
-1024.2651 -33.972755 39.043602 4286149495
-1021.9304 -33.990128 38.934223 4286017907
-1019.1871 -34.279289 39.22916 4286018165
-1015.1167 -34.948151 38.819519 4285821813
-1013.8284 -34.77599 37.528362 4286214264
-1073.0287 -30.129272 39.571636 4286215291
-1071.0386 -30.143509 39.090004 4286280820
-1068.8036 -30.24917 39.231392 4286149493
-1066.2032 -30.417671 39.176704 4286018426
-1064.1132 -30.604862 38.999355 4286083702
-1061.2047 -30.977161 39.038563 4286346360
-1058.7814 -31.170925 38.700764 4286214772
-1056.2111 -31.204926 38.827755 4285887092
-1053.8656 -31.283606 38.542377 4285952373
-1051.1898 -31.347546 38.63279 4285754992
-1048.8153 -31.337357 38.632397 4285821043
-1046.1772 -31.431168 38.921112 4285886064
-1043.0487 -31.382553 39.141315 4285624176
-1040.6877 -31.46032 39.06678 4285951854
-1038.7104 -31.507895 39.035923 4285820785
-1036.5204 -31.655077 38.110142 4285623665
-1034.0784 -31.922022 39.044468 4285624177
-1093.9001 -28.054567 38.312119 4285624173
-1088.929 -28.316818 39.61319 4285493106
-1086.1794 -28.452036 38.669247 4285688945
-1084.7802 -28.809975 38.639954 4285689199
-1080.7162 -28.979649 38.335976 4285624438
-1079.1293 -29.198734 38.420704 4285689968
-1076.4225 -29.490456 38.561966 4285756019
-1073.4301 -29.890594 38.539101 4286214779
-1070.7806 -29.337545 38.021507 4285689198
-1068.7158 -28.972645 38.626389 4285492077
-1066.5446 -29.373688 38.626797 4285557361
-1064.7018 -29.629816 38.348579 4285819761
-1086.6656 -27.321463 37.574444 4285294954
-1027.677 -75.230011 42.063446 4286807677
-1025.2214 -75.523499 41.906235 4287134587
-1024.7787 -75.443657 42.224285 4286741116
-1053.2526 -72.764557 41.516922 4286872955
-1050.9943 -72.81649 41.36129 4286741367
-1048.7209 -72.910133 41.640339 4286675577
-1046.4932 -73.033501 42.350735 4286872957
-1044.334 -73.34375 42.275593 4286545532
-1041.3558 -73.433281 42.198315 4286676095
-1039.6395 -73.426888 42.235352 4286347898
-1028.3036 -74.776596 42.156982 4286872694
-1075.9454 -70.084061 41.533813 4286742145
-1073.5245 -70.313057 40.851715 4286741631
-1071.3157 -70.421471 41.53463 4286807421
-1068.5103 -70.641182 41.526554 4286610301
-1066.4447 -70.866501 41.377945 4286676095
-1063.9664 -70.985092 41.913647 4286610303
-1060.6882 -70.428391 42.481995 4286150775
-1059.8423 -70.40715 42.452698 4286346618
-1053.2563 -72.414253 41.563354 4286872443
-1051.2281 -72.37204 41.450043 4286675577
-1048.9446 -72.30481 42.26239 4286412921
-1095.8099 -67.728661 40.792225 4286543988
-1093.509 -68.059837 40.332081 4286609785
-1091.0492 -68.208214 41.06979 4286806909
-1088.834 -68.221115 41.050709 4286741629
-1086.2758 -67.948975 41.939613 4286609789
-1083.9139 -67.960175 42.291977 4286478201
-1080.8282 -67.907928 42.218166 4286281589
-1078.823 -67.809502 42.214645 4286346614
-1076.4744 -68.647842 41.983269 4286478460
-1074.7253 -69.642006 41.846313 4286610556
-1066.9976 -69.613876 42.468506 4286215810
-1095.9327 -66.228195 41.491539 4286150004
-1093.7056 -66.105751 42.016357 4286018162
-1091.2338 -66.23407 42.288918 4286281338
-1088.8284 -66.254372 42.345146 4286150007
-1086.2723 -66.333687 42.433807 4286346358
-1083.7095 -66.434143 42.411896 4286281078
-1081.1337 -66.031532 42.368744 4286084214
-1078.4093 -66.247932 42.285667 4286215028
-1076.5448 -65.983131 42.277653 4286215027
-1097.5537 -62.952404 41.741863 4286280052
-1096.1471 -63.726009 41.824261 4286018419
-1093.7393 -63.695816 42.113968 4286149235
-1091.2255 -63.984867 42.193653 4286083699
-1088.8849 -63.638275 42.222794 4286083701
-1086.4923 -63.686188 42.44836 4286149238
-1083.8173 -63.076622 42.361912 4286018164
-1081.2688 -63.558517 42.441059 4286149236
-1078.4296 -63.569527 42.344475 4286018164
-1076.8127 -63.878494 42.295753 4285887348
-1065.6411 -63.114807 42.288555 4285887094
-1063.7749 -63.055832 42.268188 4286018164
-1061.4506 -62.91486 42.346779 4285887089
-1058.7368 -63.062031 42.340965 4285952374
-1057.1466 -63.021835 42.285973 4286083440
-1051.5316 -62.690567 42.474548 4285822067
-1097.517 -60.887363 42.308094 4285690484
-1096.2482 -61.196918 42.197147 4286017906
-1093.8813 -61.254017 42.199696 4285887091
-1091.1233 -61.264519 42.189297 4286017906
-1088.6141 -61.167057 42.3419 4286149236
-1086.551 -61.490646 42.404995 4285952628
-1083.7594 -61.246662 42.391499 4286148979
-1081.2538 -61.32373 42.340153 4286017906
-1078.6924 -61.125122 42.230053 4285952627
-1076.3373 -60.790062 42.18306 4286018162
-1073.6887 -60.676949 42.119667 4285886579
-1071.2667 -61.112576 42.008522 4285952370
-1068.7281 -61.052216 42.091007 4286017905
-1066.1925 -61.161076 41.934353 4286018163
-1063.7208 -61.151596 41.917336 4286018164
-1061.3113 -61.728119 42.333019 4286018162
-1059.0488 -61.472088 42.318714 4286018165
-1057.1771 -61.837399 42.26247 4286148980
-1051.5447 -62.182434 42.464539 4285755764
-1097.5322 -59.704956 42.388306 4286017910
-1096.2775 -58.735233 42.119019 4285886576
-1093.6788 -58.906563 42.185234 4285820787
-1091.1187 -58.667263 42.249786 4285821043
-1088.723 -58.797977 42.193607 4286017650
-1086.3059 -58.593861 41.939632 4285952115
-1083.6869 -58.811092 41.92564 4285755762
-1081.2981 -58.810333 41.684231 4285821042
-1078.8115 -58.718636 42.000092 4285821042
-1076.229 -58.841106 41.998318 4286017908
-1073.7809 -58.740528 41.912807 4285886835
-1071.2115 -58.695976 41.891247 4285755508
-1068.6713 -58.780338 42.012501 4286018164
-1066.2625 -58.741962 42.214409 4286083444
-1063.7223 -58.705475 42.242153 4285952373
-1062.1533 -59.252678 42.378651 4286017910
-1059.6156 -59.188957 42.29084 4285886581
-1095.9365 -55.902744 41.855217 4285821044
-1093.6401 -56.038136 41.605782 4285886064
-1091.2513 -56.327538 41.532234 4285886578
-1088.7319 -56.352196 41.583298 4285952112
-1086.2511 -56.395077 41.321678 4285755764
-1083.7465 -56.356441 41.631691 4285755250
-1081.3259 -56.239719 41.930588 4285558898
-1078.7213 -56.222294 41.996128 4285821298
-1076.2114 -56.255939 41.99387 4285886834
-1073.8624 -56.25832 42.037727 4285886577
-1071.2736 -56.267544 42.026489 4285821042
-1068.723 -56.200882 42.151875 4285886578
-1066.3263 -56.336308 42.338257 4285886834
-1063.8081 -56.306614 42.306999 4285821043
-1061.9022 -55.859215 42.29995 4285690229
-1056.045 -56.088318 42.491962 4285887344
-1049.1536 -55.851357 42.425117 4285756017
-1003.5962 -55.130798 42.466309 4286017651
-1095.9651 -53.761616 41.219116 4285689712
-1093.7413 -53.699871 41.275314 4285690224
-1091.2086 -53.796886 41.323856 4285624176
-1088.6565 -53.814365 41.610558 4285755249
-1086.1719 -53.77684 41.523651 4285886323
-1083.7654 -53.744709 41.943119 4285820786
-1081.2979 -53.756737 42.066036 4285886579
-1078.731 -53.817806 41.979801 4285886578
-1076.2666 -53.710922 42.02808 4285755506
-1073.6746 -53.734341 41.979137 4285821042
-1071.2014 -53.835854 42.093193 4285886324
-1068.714 -53.752605 42.251122 4285690228
-1066.4177 -53.721428 42.3512 4285755764
-1064.4639 -54.005203 42.325588 4285821044
-1061.9329 -54.674477 42.276489 4286017392
-1057.5256 -53.361294 42.486084 4285951858
-1057.0453 -53.94133 42.481682 4286017906
-1049.7002 -54.340614 42.412369 4285558381
-1005.6396 -54.865097 42.295349 4285690999
-1003.6139 -54.814636 42.22522 4285690486
-1095.8286 -51.300884 41.249107 4285624178
-1093.8059 -51.32542 41.203621 4285689968
-1091.2266 -51.31139 41.320896 4285820784
-1088.67 -51.394691 41.49522 4285820785
-1086.2332 -51.27285 41.745277 4285820787
-1083.7649 -51.165405 41.804619 4285689970
-1081.1794 -51.304779 41.897335 4285755249
-1078.7194 -51.235569 41.926025 4285755250
-1076.3198 -51.259159 41.903633 4285820784
-1073.744 -51.299202 41.886772 4285820784
-1071.1842 -51.247864 42.01947 4285755508
-1068.8136 -50.444004 42.423584 4285820530
-1066.2759 -50.38023 42.335762 4285689971
-1064.584 -50.337746 42.277222 4285820790
-1058.8746 -50.734592 42.477753 4285952116
-1010.2892 -51.428493 42.382568 4285623919
-1009.2394 -51.192577 42.342133 4285821297
-1005.9217 -50.476562 42.214478 4285756022
-1004.7401 -50.446884 42.173584 4285951608
-1001.675 -50.948116 42.379597 4286017393
-1095.7189 -48.694366 41.235397 4285624176
-1093.7885 -48.731037 41.257793 4285623921
-1091.2594 -48.745255 41.424454 4285886319
-1088.6525 -48.767746 41.780334 4285755249
-1086.2921 -48.728046 41.744202 4285755250
-1083.7609 -48.80827 41.713165 4285755251
-1081.1682 -48.757988 41.86116 4285689715
-1078.7848 -48.694386 41.875732 4285820527
-1076.203 -48.75845 41.833725 4285689714
-1073.8083 -48.753803 41.996571 4285886321
-1071.1538 -48.702885 42.304619 4285754992
-1068.8268 -48.906506 42.377659 4285951605
-1066.2754 -48.946083 42.300377 4285689968
-1064.6145 -49.153008 42.253765 4285755251
-1055.5054 -48.359596 42.486626 4286017653
-1054.2532 -48.362934 42.444141 4285886580
-1050.8281 -49.45636 42.489868 4286083699
-1095.6608 -46.360638 41.366398 4285689454
-1093.7775 -46.160297 41.350075 4285558385
-1091.2008 -46.208168 41.397949 4285689712
-1088.7406 -46.248306 41.696503 4285886320
-1086.3213 -46.182426 41.762871 4285821042
-1083.7582 -46.269314 41.731068 4285689713
-1081.2213 -46.21273 41.907471 4285755249
-1078.7877 -46.286057 41.873653 4285624175
-1076.2102 -46.23156 42.062374 4285689713
-1073.5347 -46.293499 42.260517 4285755504
-1071.2588 -46.303974 42.349396 4285755250
-1068.7604 -46.342136 42.311188 4285821043
-1066.3059 -46.58736 42.258381 4285755508
-1095.4608 -43.792164 41.077099 4285361522
-1093.729 -43.786736 41.188507 4285623661
-1091.2079 -43.719501 41.380646 4285623663
-1088.8413 -43.751709 41.613373 4285689457
-1086.2678 -43.771271 41.839802 4285886065
-1083.7349 -43.772472 41.749981 4285689970
-1081.2893 -43.671944 41.837666 4285886579
-1078.7247 -43.877239 41.894199 4285689714
-1076.1102 -44.0331 42.197292 4285624178
-1073.6924 -43.726234 42.420094 4285886323
-1071.5319 -43.68758 42.338593 4285689713
-1068.8054 -43.699814 42.283886 4285756021
-1063.4215 -43.465485 42.482464 4285756275
-1061.8435 -43.414642 42.427612 4285952373
-1058.3135 -43.538807 42.482807 4285755508
-1056.2308 -43.842896 42.41811 4285821300
-1054.3622 -43.988098 42.397381 4286148979
-1041.1298 -43.170395 42.36935 4285887350
-1095.1908 -41.177483 41.400448 4285623408
-1093.6721 -41.235706 41.105034 4285754993
-1091.2949 -41.194756 41.148548 4285689714
-1088.7457 -41.182003 41.563622 4285755506
-1086.2413 -41.310898 41.539753 4285754996
-1083.7972 -41.245533 41.556293 4285689457
-1081.3616 -41.275246 41.712128 4285820786
-1078.8256 -41.282394 42.144009 4285689713
-1075.8228 -41.163414 42.404003 4285755250
-1073.7908 -41.254211 42.403271 4285886577
-1071.333 -41.127361 42.316853 4285886578
-1068.8629 -41.274632 42.235703 4285755509
-1065.5 -40.357426 42.489082 4285952374
-1064.1942 -41.208694 42.462173 4285821042
-1061.401 -41.456802 42.410503 4285624691
-1059.278 -41.315701 42.469505 4285493617
-1048.3589 -40.259365 42.215168 4286018166
-1046.1407 -40.997345 42.09174 4285755507
-1043.9376 -41.196476 42.242313 4285886838
-1041.0186 -40.878166 42.431709 4285559158
-1039.8457 -40.703388 42.470917 4285493622
-1036.6359 -40.622818 42.359825 4285624694
-1023.4279 -40.105423 42.457214 4286148477
-1095.2039 -39.045155 41.267498 4285623920
-1093.7793 -38.753414 41.025166 4285624177
-1091.2526 -38.628567 41.141815 4285820529
-1088.6896 -38.717129 41.194069 4285689713
-1086.282 -38.699249 41.258244 4285755763
-1083.7371 -38.705906 41.40786 4285754995
-1081.1899 -38.768005 41.71867 4285821041
-1078.7068 -38.706078 41.948086 4285623922
-1076.2457 -38.800716 42.261173 4285820785
-1073.7153 -38.694321 42.27253 4285821043
-1071.5361 -39.207314 42.214279 4285689456
-1068.9238 -39.607811 42.203327 4285951863
-1065.9277 -38.484348 42.464943 4285755508
-1064.0575 -38.859589 42.408958 4285886326
-1061.3655 -38.185215 42.459625 4285755763
-1053.5129 -37.998173 42.128086 4285952628
-1050.9583 -38.487331 42.096638 4285886836
-1048.7947 -38.701065 41.982689 4285952626
-1046.3879 -38.640816 42.068161 4285952628
-1043.7946 -38.743679 42.310398 4285821558
-1041.151 -38.545525 42.438107 4285821301
-1039.0072 -38.25832 42.391777 4286017911
-1036.5408 -38.569859 42.314148 4286017652
-1033.3267 -37.833748 42.189377 4286017913
-1030.2816 -38.314304 42.348526 4286149242
-1029.7217 -38.915131 42.474651 4286280565
-1025.5841 -38.383987 42.495178 4285624953
-1023.4497 -39.260258 42.440514 4286018167
-1002.715 -37.504059 41.683167 4286281595
-1002.212 -37.507294 41.564056 4286085494
-1093.8389 -36.214638 41.016106 4285623919
-1091.2695 -36.279778 41.092102 4285755249
-1088.7328 -36.232952 40.955059 4285821041
-1086.2899 -36.24044 41.379314 4285755250
-1083.8013 -36.243111 41.761894 4285821042
-1081.2639 -36.243168 41.711029 4285755248
-1078.712 -36.22348 41.74876 4285689969
-1076.2408 -36.208118 41.723808 4285755506
-1073.7408 -36.264828 41.683372 4285821043
-1071.369 -36.088493 41.95438 4285821301
-1068.7029 -35.782234 42.116165 4285886579
-1066.257 -36.313633 42.431293 4285952372
-1063.9099 -36.171364 42.390415 4285755766
-1061.8409 -36.326294 42.432335 4285952373
-1058.5151 -36.173893 42.337017 4285886834
-1056.2523 -35.939369 41.992153 4286083444
-1053.8047 -36.277248 41.740395 4285952628
-1051.2113 -36.278053 41.774017 4285887094
-1048.8035 -36.193836 41.833893 4286083446
-1046.2128 -36.24379 41.889046 4285887095
-1043.7562 -36.243507 42.07164 4285887093
-1041.3197 -36.185593 42.368713 4285952630
-1038.8372 -36.418987 42.348072 4286018166
-1036.3982 -36.726891 42.271248 4286018421
-1033.259 -36.475704 42.214725 4286083702
-1030.6606 -36.270771 42.084446 4286149239
-1025.744 -35.869446 42.287151 4286346875
-1023.7736 -35.10376 41.606853 4285822839
-1021.4467 -35.243023 41.737579 4286281078
-1018.8196 -35.38995 41.012867 4286150268
-1013.5098 -35.955521 41.097523 4286281339
-1011.3431 -36.151714 41.40958 4286281081
-1008.5395 -36.318306 41.158291 4286150524
-1006.0594 -36.847492 41.231548 4286478460
-1003.8025 -36.567616 40.732918 4286411896
-1001.7784 -36.428371 41.22998 4286083957
-1093.7576 -33.669926 40.953251 4285689456
-1091.2146 -33.725197 41.021778 4285755248
-1088.8066 -33.676586 40.983337 4285689713
-1086.2528 -33.76099 41.162491 4285886320
-1083.6895 -33.779018 41.55397 4285689715
-1081.2297 -33.811852 41.596561 4285755248
-1078.8013 -33.756016 41.591751 4285821040
-1076.292 -33.768906 41.590137 4285821044
-1073.6497 -33.813927 41.49049 4285886835
-1071.3466 -33.747292 41.847294 4285886579
-1068.7941 -33.646664 41.977131 4285821300
-1066.2434 -33.820908 42.177391 4285886835
-1063.8162 -33.695129 42.132114 4285952369
-1061.3971 -33.582458 42.136768 4285887092
-1058.7041 -33.590282 41.580807 4286018420
-1056.2328 -33.692623 41.636036 4285952630
-1053.6564 -33.783386 41.62365 4285952374
-1051.2837 -33.745235 41.39497 4285821557
-1048.7281 -33.703381 41.550064 4285821559
-1046.1735 -33.633064 41.460407 4285953143
-1043.7924 -33.721115 41.551643 4286018935
-1041.2938 -33.906731 41.756882 4285953400
-1038.8881 -33.830994 41.694408 4286281080
-1036.278 -33.687462 41.417133 4286281081
-1033.3817 -33.919453 41.459896 4286215542
-1031.1538 -34.394093 41.612286 4286281336
-1028.7196 -34.443581 41.391861 4286281337
-1026.192 -34.657104 41.077419 4286412664
-1024.3204 -34.825459 40.729378 4286150781
-1021.8398 -34.600548 40.174133 4286281590
-1019.1165 -34.84639 40.212402 4286280306
-1093.4722 -31.262976 41.178848 4285623920
-1091.2363 -31.165131 41.103477 4285755505
-1088.7994 -31.244759 41.135059 4285624435
-1086.2786 -31.328342 41.039642 4285821044
-1083.678 -31.191523 41.408607 4285821042
-1081.2493 -31.276196 41.59885 4285755506
-1078.7332 -31.234951 41.46349 4285886577
-1076.1573 -31.281345 41.644791 4285886834
-1073.7083 -31.288729 41.976933 4285886836
-1071.2065 -31.257664 41.678581 4285952629
-1068.7197 -31.438604 41.450687 4286018166
-1066.2887 -31.407988 41.462185 4286018422
-1063.8225 -31.629368 41.312263 4286149497
-1061.3794 -31.755995 41.653782 4286018423
-1058.8981 -31.795656 41.060223 4286149752
-1056.2528 -31.92524 41.256855 4285887607
-1053.8159 -32.021389 40.955215 4286084217
-1051.2507 -32.202625 40.587002 4286150011
-1048.9095 -32.260895 40.35606 4286215801
-1047.1234 -32.381725 40.442219 4285888628
-1044.1279 -31.201797 40.485863 4285886323
-1041.7968 -31.408434 40.277309 4285624433
-1033.1127 -32.248856 40.035156 4285886318
-1093.425 -29.044748 41.486511 4285624177
-1091.1199 -29.374611 41.746323 4285689970
-1088.589 -29.166285 41.342892 4285689972
-1086.2621 -29.162476 41.056664 4285886324
-1083.9253 -29.541843 41.258411 4285690228
-1081.1575 -29.440701 41.218815 4285755763
-1079.4507 -29.459862 40.750725 4285952111
-1076.2943 -29.787571 40.811455 4286018678
-1073.5494 -29.933258 40.955505 4285952633
-1005.6839 -77.5439 43.827618 4286478972
-1028.7172 -75.067184 43.010101 4286808195
-1026.1461 -75.156425 42.884163 4287200638
-1023.5432 -75.412117 42.998135 4286479229
-1021.1896 -75.430099 43.054569 4286676095
-1018.7549 -75.702652 43.222198 4286872445
-1016.1981 -75.630753 44.068737 4286282105
-1014.2349 -75.571198 44.45723 4286675067
-1011.0643 -75.421684 44.761696 4286346365
-1009.2194 -75.280708 44.776386 4286412149
-1005.7237 -76.303154 44.479469 4286346875
-1004.7303 -75.754105 44.596382 4286018681
-1047.5377 -73.040802 42.59668 4286675325
-1045.5839 -73.020073 42.943462 4286741116
-1043.5566 -73.15593 43.071667 4286741625
-1041.0992 -72.779381 43.361336 4286348156
-1038.4493 -72.881226 44.169849 4286413180
-1036.2561 -72.965294 43.686802 4286544251
-1033.8573 -72.801155 44.107136 4286347128
-1031.1709 -72.780716 44.39489 4286412407
-1028.6361 -73.614365 44.137596 4286478456
-1026.4487 -73.669624 44.216621 4286543992
-1023.6061 -73.736771 44.414158 4286216054
-1021.2709 -73.67717 44.353271 4286281336
-1019.0999 -73.557053 44.657562 4286149753
-1016.0355 -74.82074 44.815411 4286412406
-1013.3224 -73.388702 44.3848 4286149749
-1011.2286 -73.641052 44.437138 4286215028
-1009.0981 -73.499786 44.229332 4286149237
-1006.02 -73.737473 44.491699 4286018167
-1004.544 -73.695152 44.816074 4286083956
-1070.0251 -70.008408 42.670471 4286937462
-1067.6471 -70.287598 42.596863 4286609788
-1065.9297 -70.196411 42.772156 4286348153
-1063.5769 -70.284615 42.903545 4286543993
-1061.4257 -70.429214 42.781185 4286412919
-1058.7062 -70.479523 42.803207 4286477945
-1056.3937 -70.359055 42.965187 4286084985
-1053.3689 -70.797386 43.789043 4286281846
-1051.2209 -70.902107 43.670551 4286281590
-1048.7701 -71.011536 43.428841 4286412664
-1046.2451 -71.17868 44.030201 4286412150
-1043.7181 -71.257561 44.074711 4286412409
-1041.178 -71.174538 44.093384 4286281335
-1038.6366 -71.285667 44.323036 4286281079
-1036.2535 -71.310738 44.410366 4286280823
-1033.7472 -71.173233 44.426224 4286215544
-1031.2318 -71.308411 44.364906 4286280821
-1028.7927 -71.240906 44.473042 4286149750
-1026.3263 -71.123505 44.14172 4286149750
-1023.695 -71.109161 44.162273 4286018423
-1021.2673 -71.304932 44.104164 4286149495
-1018.6719 -71.23465 44.201244 4286083702
-1016.335 -70.886131 44.400253 4286018165
-1013.7204 -71.170731 44.145042 4285952629
-1011.2358 -71.295639 44.180874 4285952631
-1008.7299 -71.154388 44.290348 4286018165
-1006.5606 -71.325226 44.38538 4286018165
-1004.619 -71.256187 44.745552 4285821558
-1082.8524 -67.71772 42.538452 4286347376
-1081.8008 -67.728264 43.204784 4286346874
-1078.3928 -67.697845 42.82077 4286609014
-1075.4542 -68.504059 42.881691 4286412668
-1073.6924 -68.569061 42.885384 4286477943
-1071.2092 -68.602196 42.864857 4286346871
-1068.7272 -68.627655 42.990345 4286412664
-1066.2294 -68.751648 42.973473 4286281336
-1063.7262 -68.717804 43.041969 4286281078
-1061.1675 -68.678642 42.962616 4286280823
-1058.8453 -68.809692 42.970123 4286346616
-1056.2936 -68.683334 43.572971 4286215030
-1053.7189 -68.764412 43.851109 4286149749
-1051.2856 -68.734726 43.865875 4286215285
-1048.7461 -68.790245 43.709766 4286083701
-1046.1929 -68.859093 43.841953 4286149492
-1043.7585 -68.700462 44.0453 4286150006
-1041.2419 -68.694138 43.820374 4286084214
-1038.6901 -68.732399 43.764648 4286215287
-1036.3647 -68.766151 43.83181 4286018421
-1033.7754 -68.85434 43.711643 4286018678
-1031.2922 -68.78875 43.485676 4286018166
-1028.8026 -68.744629 43.701542 4286018421
-1026.2349 -68.790642 43.562138 4286149236
-1023.8092 -68.729919 43.741447 4286083957
-1021.3022 -68.74749 43.858841 4286215030
-1018.7346 -68.805565 44.042023 4285887093
-1016.2318 -68.740631 43.867558 4286018164
-1013.6749 -68.815834 44.372448 4285952627
-1011.2794 -68.788635 44.424088 4286017910
-1008.7521 -68.693481 44.352772 4286017908
-1006.2054 -68.665291 44.536144 4285755508
-1004.242 -68.664963 44.513264 4285952885
-1093.2507 -66.498962 42.647186 4286084208
-1091.2188 -66.448387 42.57333 4286150006
-1088.651 -66.016197 42.538937 4286018679
-1086.0581 -65.880356 42.55896 4286346358
-1083.8312 -65.52935 42.549866 4286149752
-1081.8706 -66.454979 42.896748 4286150005
-1078.9995 -66.187378 42.859844 4286018421
-1075.9176 -66.424133 42.842098 4286215029
-1073.8007 -66.313553 42.871716 4286083958
-1071.2507 -66.263428 42.930897 4286018418
-1068.6796 -66.194397 43.145397 4286083957
-1066.3214 -66.273712 43.133125 4285953142
-1063.8052 -66.236763 43.156506 4286083957
-1061.2303 -66.292778 43.095009 4286150006
-1058.8196 -66.283821 43.046265 4286215029
-1056.2493 -66.179115 43.561699 4286018166
-1053.7107 -66.187584 43.315334 4286148981
-1051.2725 -66.086891 43.390068 4285952628
-1048.7478 -66.369774 43.227501 4285952628
-1046.2985 -66.258919 43.091553 4285952627
-1043.7869 -66.293579 43.116093 4286018420
-1041.2148 -66.278137 43.044842 4286149494
-1038.8224 -66.194527 43.30772 4286215030
-1036.2672 -66.293167 43.520451 4286083702
-1033.7427 -66.302238 43.500702 4285952885
-1031.2545 -66.221962 43.460297 4286083702
-1028.6854 -66.253792 43.777161 4285952371
-1026.2491 -66.32827 43.846024 4285886834
-1023.7314 -66.228233 43.911373 4285886836
-1021.1965 -66.240852 43.966747 4285952370
-1018.8524 -66.340446 44.245525 4286018164
-1016.2557 -66.316826 44.128208 4286083700
-1013.7311 -66.300003 44.535698 4286017907
-1011.3745 -66.252113 44.529564 4285952371
-1008.8921 -66.433205 44.403366 4285887091
-1006.2634 -66.587601 44.539524 4285952371
-1004.2597 -66.498665 44.410065 4285952372
-1093.0027 -62.614487 42.622864 4286541940
-1091.3511 -62.885151 42.587685 4286214770
-1088.342 -64.148895 42.519379 4286083956
-1085.483 -64.041885 42.594711 4286280565
-1083.793 -64.170982 42.570919 4286083959
-1081.3505 -63.696854 42.864635 4285887091
-1079.0806 -63.914371 42.895226 4285952374
-1075.8289 -63.57349 42.860512 4286017910
-1073.7015 -63.769257 43.001953 4285887348
-1071.1493 -63.698017 43.041878 4286018420
-1068.7632 -63.80106 43.084915 4285952630
-1066.531 -63.927921 43.000217 4286083956
-1063.6422 -64.354546 43.070423 4286149492
-1061.2162 -63.964497 43.136829 4286083702
-1058.7601 -64.083488 42.787193 4286018167
-1056.1378 -63.934292 42.730835 4285886835
-1053.8981 -63.8018 42.649578 4285887349
-1051.2241 -63.656387 43.019806 4286017910
-1048.7236 -63.76804 43.188896 4285756020
-1046.2533 -63.657909 43.152061 4285952371
-1043.691 -63.801712 43.158024 4285887093
-1041.271 -63.733006 43.110477 4286017909
-1038.7919 -63.780891 43.436592 4285887091
-1036.2264 -63.753204 43.595638 4285887091
-1033.7742 -63.788929 43.802967 4285952373
-1031.209 -63.749416 43.989788 4285887348
-1028.6459 -63.702129 44.073959 4285887094
-1026.2992 -63.782932 44.030907 4285821555
-1023.7634 -63.761757 43.97551 4285887349
-1021.2021 -63.776981 44.091618 4285821301
-1018.804 -63.687038 44.473366 4285887092
-1016.3001 -63.828194 44.428738 4285887094
-1013.9348 -63.770679 44.233936 4285755763
-1011.2087 -63.703968 44.687332 4285886837
-1008.7595 -63.694939 44.763557 4285886836
-1006.2744 -63.339489 44.734528 4286017907
-1003.9701 -63.514034 44.239212 4285886837
-1095.0962 -60.292892 42.645935 4285821554
-1093.0304 -61.427395 42.620319 4285886580
-1091.2565 -61.20377 42.558037 4285952371
-1089.2866 -62.011269 42.508972 4285952368
-1085.6958 -60.808113 42.580284 4285756019
-1084.7726 -60.928314 42.506145 4286214515
-1080.9222 -61.259491 42.833221 4286083191
-1078.9694 -61.560032 42.806278 4285952628
-1076.1985 -61.612125 42.884109 4285952630
-1073.8044 -61.772942 42.876877 4285952628
-1072.0798 -62.045776 42.688385 4286280308
-1068.9382 -62.231232 42.808079 4285887090
-1066.9652 -62.24305 42.785294 4286017910
-1060.939 -60.843956 42.749332 4286018164
-1058.3835 -60.934929 42.682289 4286083444
-1056.1522 -61.161968 42.758015 4285821299
-1053.7671 -61.18206 42.807137 4285952372
-1051.2302 -61.26453 42.793934 4285952372
-1048.7909 -61.226772 43.117943 4285886834
-1046.2922 -61.28886 42.989437 4285952626
-1043.7034 -61.259029 43.115562 4285952628
-1041.3103 -61.229267 43.272938 4286018163
-1038.7968 -61.314251 43.521053 4285952629
-1036.1893 -61.258057 43.576103 4285952373
-1033.8019 -61.305313 43.640724 4286018163
-1031.2812 -61.231209 44.095413 4286017906
-1028.7274 -61.313278 44.031799 4285887094
-1026.2358 -61.213867 44.042309 4285952629
-1023.7076 -61.213078 44.343159 4285952886
-1021.2586 -61.201721 44.639774 4285952371
-1018.5989 -61.308037 44.648548 4285886836
-1016.1847 -61.320328 44.698418 4286018165
-1013.8809 -61.204853 44.579479 4285952372
-1011.0468 -61.293182 44.919601 4285952369
-1008.7516 -61.243847 44.7132 4285886836
-1006.2342 -61.201389 44.413704 4285887091
-1003.8799 -61.258965 44.263271 4285886838
-1097.5032 -59.31813 42.644531 4286148724
-1095.4078 -58.915981 42.726955 4285821042
-1094.1448 -57.727489 42.565662 4285755506
-1091.6339 -59.237434 42.529816 4285952371
-1085.9377 -59.546513 42.51717 4286017911
-1061.0417 -58.693932 42.71566 4285952370
-1058.5216 -58.714973 42.656013 4285886579
-1056.2638 -58.705025 42.618801 4286017905
-1053.6847 -58.742027 43.141685 4285886833
-1051.2294 -58.769531 43.066158 4285886836
-1048.774 -58.646954 43.124756 4285886579
-1046.2117 -58.790386 43.110443 4285886835
-1043.7784 -58.74107 43.162579 4285952374
-1041.2185 -58.789547 43.52573 4285952372
-1038.6273 -58.764248 43.673038 4285952373
-1036.2622 -58.781864 43.940708 4285952626
-1033.809 -58.719601 44.09127 4286017908
-1031.2511 -58.723598 44.204678 4285952372
-1028.7876 -58.778717 44.054173 4285952372
-1026.261 -58.705746 44.307144 4286017908
-1023.7195 -58.788326 44.179668 4285689971
-1021.4313 -58.861294 44.369564 4285886580
-1018.3771 -58.739433 44.821709 4285755509
-1016.1964 -58.791637 44.674614 4285821299
-1013.9692 -58.718975 44.658272 4285821302
-1011.0125 -59.233353 44.91003 4285689972
-1008.7932 -58.696152 44.664268 4285755504
-1006.3007 -58.824303 44.321701 4285821043
-1003.8801 -58.728359 44.401871 4285886579
-1002.4437 -57.894348 44.205109 4285690228
-1096.3689 -56.935989 42.61998 4285820785
-1094.3887 -56.998943 42.565037 4285755505
-1065.2638 -55.249573 42.763672 4285821307
-1062.8961 -55.190121 42.681721 4286083442
-1061.0587 -56.252125 42.710846 4285886833
-1058.8264 -56.3125 42.740273 4285952370
-1056.3136 -56.241032 42.641727 4285952627
-1053.6765 -56.348091 42.922169 4285886579
-1051.2928 -56.218342 43.042198 4285886578
-1048.6481 -56.490826 42.938976 4285952371
-1046.1954 -56.246437 43.140511 4285886836
-1043.7581 -56.256161 43.375771 4285886579
-1041.2621 -56.29594 43.333694 4286017907
-1038.7042 -56.209 43.3293 4285755765
-1036.2695 -56.330574 43.446136 4286018165
-1033.7207 -56.280556 43.733643 4285821301
-1031.2473 -56.296066 43.914043 4285886837
-1028.741 -56.198006 44.163078 4285755765
-1026.1594 -56.275768 44.189445 4285952371
-1023.7828 -56.265629 43.946613 4285821296
-1020.9949 -56.179714 44.415344 4285951860
-1018.7183 -56.348576 44.397644 4285886324
-1015.8965 -56.205418 44.486778 4285755507
-1013.8084 -56.253662 44.497032 4285821042
-1011.1963 -56.022995 44.279507 4285755249
-1008.7634 -56.168327 44.010025 4285821300
-1006.2346 -56.27552 43.750076 4285952115
-1003.7635 -56.279709 43.830429 4285821300
-1002.3449 -56.325878 43.421265 4286018165
-1070.7871 -52.695442 42.537445 4285951854
-1069.772 -52.670242 42.50238 4285165936
-1065.3003 -53.725788 42.758629 4285821044
-1063.2284 -53.694992 42.685791 4285887092
-1061.2073 -53.75531 42.641262 4285821042
-1058.7836 -53.750923 42.750229 4285886579
-1056.0256 -53.782581 42.867065 4285755505
-1053.7393 -53.8055 42.90049 4285821300
-1051.257 -53.641842 42.987701 4285886579
-1048.5906 -53.68198 43.145622 4285821044
-1046.2614 -53.724468 43.287445 4285755506
-1043.7634 -53.764534 43.594296 4285886837
-1041.2112 -53.718903 43.634499 4285952374
-1038.7654 -53.709557 43.837959 4285821300
-1036.2246 -53.826427 43.526714 4285821558
-1033.667 -53.692169 43.810844 4285952372
-1031.278 -53.763229 44.059479 4285755764
-1028.7148 -53.774937 44.429169 4285952627
-1026.2329 -53.828224 44.100319 4286083186
-1023.7578 -53.630344 44.12999 4285821297
-1021.2419 -53.833256 44.473293 4285690228
-1018.7399 -53.772449 44.50798 4285952116
-1016.1865 -53.644745 44.523663 4285952371
-1013.6703 -53.770859 44.183975 4285886835
-1011.2675 -53.725002 43.735569 4285690226
-1008.7101 -53.783138 43.45372 4285821042
-1006.2742 -53.732513 43.134487 4285886836
-1003.7937 -53.760475 43.143925 4285821555
-1002.1714 -53.651909 43.333576 4285952626
-1071.2037 -51.308716 42.522968 4285689711
-1068.7402 -51.611633 42.822071 4285821044
-1066.2036 -51.548176 42.734955 4285886577
-1063.5596 -51.322559 42.647572 4285952116
-1061.3026 -51.255299 42.571297 4285886838
-1058.7731 -51.399082 42.61311 4285886580
-1056.1555 -51.311043 42.902325 4285952114
-1053.7991 -51.224842 43.104916 4285886578
-1051.241 -51.307636 43.035412 4285886579
-1048.6952 -51.238464 43.074738 4285821044
-1046.2883 -51.194969 43.229897 4285886580
-1043.7516 -51.314888 43.333401 4285886580
-1041.2214 -51.200741 43.66338 4285755505
-1038.7855 -51.272923 44.035332 4285886836
-1036.2588 -51.223228 44.070042 4285755766
-1033.7069 -51.309978 44.046127 4285887091
-1031.2848 -51.230213 44.174786 4286017909
-1028.7645 -51.276386 44.319252 4285952373
-1026.2557 -51.282135 44.010937 4285952372
-1023.7376 -51.174198 44.279778 4285886834
-1021.1849 -51.366596 44.163338 4285821043
-1018.7715 -51.253902 44.231045 4285755507
-1016.2625 -51.32346 43.896992 4285886579
-1013.7807 -51.239971 43.650047 4285755507
-1011.3633 -51.240803 43.405396 4285755506
-1008.6389 -51.29446 43.037422 4285821298
-1006.2886 -51.404507 43.039963 4285821300
-1003.6559 -51.287319 43.026234 4285821300
-1001.9692 -51.203381 42.913872 4286148725
-1073.0543 -48.476295 42.527542 4285754995
-1071.3442 -48.721191 42.832024 4285689716
-1068.8361 -47.889965 42.750103 4285886583
-1066.6361 -47.902496 42.673695 4285820787
-1063.52 -48.684269 42.605709 4285755509
-1061.3441 -48.75499 42.607349 4286083444
-1058.7068 -48.911854 42.607052 4285821043
-1056.4648 -49.064617 42.533962 4285624436
-1053.4636 -48.966381 42.920246 4285755765
-1051.2296 -48.806061 43.027351 4285755506
-1048.7815 -48.76424 43.201225 4285755507
-1046.3654 -48.8009 43.23914 4285821043
-1043.8179 -48.713757 43.594887 4285952371
-1041.1768 -48.787708 43.668114 4285821297
-1038.7626 -48.685291 43.576206 4285886579
-1036.215 -48.717018 43.807999 4285887092
-1033.7657 -48.76598 44.088291 4285886837
-1031.2365 -48.711716 43.992958 4285886835
-1028.7041 -48.815201 43.893539 4285755765
-1026.1848 -48.78265 43.6334 4286018166
-1023.6611 -48.837955 43.316555 4285755765
-1021.2719 -48.754963 43.790409 4285952372
-1018.7464 -48.720638 43.627991 4285690227
-1016.229 -48.77095 43.644291 4285821042
-1013.6864 -48.755974 43.403725 4285821043
-1011.1414 -48.738995 43.617023 4285886323
-1008.7713 -48.698021 43.29995 4285952371
-1006.2604 -48.754295 43.193363 4285952373
-1003.7366 -48.759296 43.424351 4285887093
-1001.7814 -48.650826 43.377007 4285887090
-1076.3843 -45.723133 42.584126 4285820535
-1074.0323 -46.115208 42.788769 4285886320
-1071.3384 -46.192001 42.80703 4285755506
-1068.7449 -46.067623 42.716156 4285755251
-1066.0958 -46.058407 42.624268 4285886577
-1063.8014 -46.246147 42.722729 4285952371
-1061.2589 -46.208649 43.043205 4285952114
-1058.74 -46.301796 43.091087 4285689972
-1056.3156 -46.239819 43.007168 4285755509
-1053.7406 -46.298115 42.981754 4285886835
-1051.1859 -46.225857 43.109325 4285821300
-1048.7648 -46.236935 43.198444 4285886580
-1046.2594 -46.277237 43.295063 4285690227
-1043.708 -46.193954 43.482944 4285886837
-1041.3279 -46.244846 43.796726 4285821044
-1038.772 -46.178299 43.559628 4285886580
-1036.2471 -46.249241 43.265942 4285821556
-1033.7925 -46.167366 43.487034 4285821300
-1031.2245 -46.266766 43.374943 4285887092
-1028.8076 -46.318249 43.275814 4286017908
-1026.2766 -46.255997 43.186138 4285887093
-1023.7776 -46.310188 43.075443 4285821557
-1021.2838 -46.2356 43.330803 4285886837
-1018.756 -46.245102 43.359661 4285886837
-1016.2337 -46.215748 43.772587 4285952373
-1013.7083 -46.190475 43.982758 4285755507
-1011.153 -46.21558 43.971493 4285821300
-1008.8273 -46.129055 43.766865 4285886835
-1006.3007 -46.183491 43.246735 4286017908
-1003.766 -46.243301 43.293728 4285887092
-1001.7512 -46.296158 43.428391 4285821558
-1079.8641 -42.766541 42.501465 4285755244
-1076.2251 -43.140984 42.525303 4285755503
-1074.1592 -44.976418 42.854431 4286017908
-1070.5283 -43.937229 42.729439 4285558894
-1068.9011 -43.971226 42.674412 4285559154
-1066.2341 -43.761524 42.584484 4285952372
-1063.8311 -43.777111 42.596188 4285624946
-1061.0757 -43.877102 42.635883 4285624435
-1059.0732 -43.901031 42.638378 4285886579
-1056.1765 -43.757088 42.879978 4285755509
-1053.6002 -43.795132 42.886234 4285886834
-1051.2975 -43.741768 42.891819 4285755508
-1048.7623 -43.75259 43.184868 4285952372
-1046.2103 -43.757797 43.324699 4285755763
-1043.7235 -43.67218 43.18174 4285952370
-1041.2761 -43.910984 43.163342 4285886579
-1038.7278 -43.676128 43.060146 4285821298
-1036.2689 -43.803425 42.838314 4285886837
-1033.677 -43.762856 43.175884 4285952117
-1031.2516 -43.804291 43.376991 4286018164
-1028.7217 -43.749264 43.292828 4285952629
-1026.1903 -43.722191 43.279331 4285952629
-1023.7661 -43.765156 43.223579 4285821301
-1021.2608 -43.74337 43.21632 4285821300
-1018.7324 -43.812244 43.390484 4285952370
-1016.3041 -43.757645 43.448734 4285887091
-1013.8041 -43.855057 43.591553 4285886836
-1011.2477 -43.792648 43.947807 4285821298
-1008.7179 -43.727501 43.909618 4285952371
-1006.1873 -43.681149 43.429089 4285821554
-1003.7731 -43.679424 43.23156 4285887091
-1001.6715 -43.761379 43.291946 4286083703
-1078.2483 -40.731018 42.544388 4285820785
-1076.8708 -41.628204 42.516026 4285886063
-1070.2314 -41.943848 42.66634 4285821555
-1067.9131 -41.358479 42.592033 4285755504
-1066.4137 -41.347706 42.540707 4285952114
-1063.0532 -41.468208 42.585106 4285756276
-1061.1406 -41.141632 42.753929 4285886835
-1058.5555 -41.21925 43.014008 4285690228
-1056.2356 -41.286602 42.976887 4285821302
-1053.6947 -41.220215 42.954659 4285821044
-1051.2633 -41.189217 42.944798 4285952371
-1048.7733 -41.337593 43.025089 4285821299
-1046.4257 -41.598354 42.812469 4285821044
-1043.1967 -41.683327 42.664574 4285952630
-1041.2423 -41.375671 42.583958 4285886836
-1038.6765 -41.24332 42.827553 4285756020
-1036.1986 -41.372372 42.766987 4285755765
-1033.689 -41.125011 43.074715 4285886837
-1031.2699 -41.332825 43.093483 4285821556
-1028.7551 -41.306736 43.088688 4285952628
-1026.2352 -41.202675 43.123875 4286018165
-1023.8162 -41.283955 43.052433 4285952374
-1021.2652 -41.226791 43.443531 4285952885
-1018.7498 -41.191696 43.854641 4285755764
-1016.2281 -41.217083 43.612232 4285887093
-1013.6814 -41.236534 43.715515 4285887094
-1011.3178 -41.292042 43.779713 4285886580
-1008.8221 -41.274288 43.880222 4285952376
-1006.2687 -41.267673 43.729294 4285952886
-1003.7071 -41.229507 43.756321 4285952631
-1001.3234 -41.289703 43.42429 4286018422
-1070.7712 -38.458523 42.624454 4285624177
-1068.6853 -38.470173 42.554554 4285821301
-1067.0542 -39.087322 42.515804 4286017399
-1062.8225 -38.691582 42.536236 4285821299
-1061.2313 -39.0555 42.870079 4286017653
-1058.7314 -38.703487 42.990086 4285690226
-1056.2374 -38.788837 42.969872 4285886835
-1053.8512 -38.952843 42.798191 4286017909
-1051.7574 -39.217449 42.741005 4286083187
-1047.6647 -39.549393 42.574219 4285755252
-1045.637 -39.499687 42.503754 4285756530
-1042.5795 -39.587933 42.541157 4286018420
-1041.8582 -39.696846 42.518745 4286148726
-1038.6348 -39.118328 42.7771 4286018422
-1036.1349 -38.876278 42.68985 4286017909
-1033.8765 -38.847363 42.633484 4285952627
-1031.4642 -38.892784 42.619831 4285887092
-1028.6593 -38.766655 42.785736 4286083702
-1026.386 -38.783253 42.764919 4285756279
-1023.8211 -38.649433 43.149078 4285755766
-1021.2452 -38.761288 43.349617 4285887349
-1018.7886 -38.771095 43.413933 4285952887
-1016.2777 -38.755722 43.437149 4285886837
-1013.7377 -38.709641 43.475922 4285952630
-1011.2941 -38.693569 43.735573 4285887349
-1008.6804 -38.76852 44.008869 4286149495
-1006.3124 -38.744682 43.994839 4285953142
-1003.7706 -38.768745 43.79607 4286018935
-1001.3349 -38.581947 43.829025 4286149748
-1070.6926 -37.158825 42.589443 4285952369
-1069.049 -36.993248 42.53672 4285755249
-1063.077 -36.392338 42.765732 4285821300
-1061.0156 -36.183937 43.042557 4285886578
-1058.8601 -36.33728 42.934128 4285887091
-1056.3259 -37.02388 42.698105 4285886835
-1053.1475 -37.492264 42.520691 4285952626
-1038.3743 -35.416576 42.688545 4286083958
-1036.1265 -35.923264 42.627975 4285952886
-1034.2191 -36.105934 42.63139 4286083701
-1031.537 -36.228199 42.776909 4286149495
-1028.7147 -36.164902 43.315086 4285887092
-1026.2795 -36.223309 43.197659 4286083959
-1023.7767 -36.277664 43.309303 4286084214
-1021.2877 -36.452156 43.194302 4285822073
-1018.7778 -36.597603 43.212376 4286018935
-1016.191 -36.683754 43.248669 4286018677
-1013.7907 -36.731346 43.035618 4286149754
-1011.1296 -36.922424 43.403259 4286149752
-1008.8448 -36.934849 43.604156 4286084731
-1006.4113 -37.126198 43.540936 4286084731
-1004.2001 -37.22982 43.592999 4286215801
-1000.5213 -36.350452 43.055733 4285952371
-999.97754 -36.867924 42.98291 4286082931
-1063.0454 -34.872849 42.604675 4286017649
-1060.7682 -34.490005 42.818996 4286018162
-1059.0867 -34.671684 42.7962 4286083705
-1038.2859 -34.497997 42.65987 4286084213
-1036.3118 -34.369396 42.593719 4286018680
-1034.0411 -34.669544 42.596794 4286150008
-1031.4104 -34.725777 42.790985 4286084475
-1028.8444 -34.85854 42.717968 4285887857
-1026.6619 -34.853848 43.006367 4286084471
-1024.5457 -34.926262 42.850372 4286084214
-1013.6163 -75.296555 45.095604 4286543738
-1011.5964 -75.098412 45.079784 4286411898
-1008.3701 -75.169418 45.46167 4286281592
-1006.6998 -75.287704 45.031139 4286280825
-1031.7598 -72.716797 45.035522 4286805117
-1025.5391 -73.231148 45.201355 4286346869
-1024.2145 -73.420776 45.147713 4286281333
-1017.8275 -73.909332 45.174381 4286346871
-1016.2308 -73.435303 45.134853 4286281079
-1014.1041 -73.931366 45.091942 4286281079
-1011.1442 -74.446014 45.070522 4286280819
-1008.2137 -74.133774 45.387398 4286150004
-1007.15 -74.165848 45.284565 4286084470
-1035.5372 -70.112244 45.107117 4285886839
-1031.7686 -72.379608 45.028748 4286870903
-1025.5098 -72.130257 45.198345 4285887096
-1023.8927 -72.165192 45.113403 4286150009
-1017.5696 -72.257736 45.184448 4286149745
-1016.0845 -72.079056 45.150925 4286018680
-1014.7098 -72.01619 45.106934 4286150264
-1005.2323 -71.035149 45.40147 4286214773
-1003.9636 -71.007309 45.359474 4285952631
-1035.5596 -69.207642 45.102112 4286084464
-1013.9678 -68.119095 45.001099 4286083703
-1005.3145 -69.906151 45.053253 4286149234
-1017.9032 -65.858894 45.063446 4286280560
-1012.6859 -65.211365 45.068817 4285886581
-1010.3043 -65.468704 45.328796 4286082930
-1008.367 -65.330536 45.349846 4285887348
-1006.3372 -65.200249 45.414303 4285756019
-1003.9332 -65.522575 45.295349 4286017653
-1012.725 -63.695438 45.038811 4285689973
-1007.8004 -64.561859 45.249786 4285624690
-1006.2151 -64.552437 45.252628 4285952370
-1004.1151 -64.616425 45.128143 4286083448
-1022.563 -61.593521 45.134277 4286083704
-1019.5065 -60.279865 45.019562 4285689972
-1016.0195 -60.070587 45.076202 4285887860
-1012.7642 -62.17865 45.008698 4285756021
-1011.9288 -61.127201 45.356285 4286017906
-1002.6808 -60.382584 45.16037 4286083186
-1020.8195 -58.226414 45.019428 4285821558
-1019.3993 -58.907513 45.093815 4285624691
-1016.3665 -58.590359 45.057404 4285886834
-1013.1407 -58.53949 45.272869 4285690225
-1011.4188 -58.642048 45.317802 4285755508
-1002.7156 -59.034058 45.133533 4285821302
-1022.0847 -56.339882 45.027451 4286017655
-1019.288 -57.4561 45.133545 4286083184
-1016.8074 -56.199772 45.022999 4285755505
-1013.328 -56.564339 45.274708 4285886061
-1011.2556 -57.210949 45.24654 4285820527
-1017.3414 -54.541832 45.006927 4285886579
-1014.2969 -54.279602 45.252426 4285821038
-1026.9175 -49.565552 45.033997 4285886838
-1001.8199 -40.762901 45.248962 4285822063
-1001.1816 -39.442547 45.178391 4286018162
