# .PCD v0.7 - Point Cloud Data file format
VERSION 0.7
FIELDS x y z rgba
SIZE 4 4 4 4
TYPE F F F U
COUNT 1 1 1 1
WIDTH 1120
HEIGHT 1
VIEWPOINT 0 0 0 1 0 0 0
POINTS 1120
DATA ascii
-995.08081 -59.379448 18.67334 4280561709
-992.453 -52.690491 19.390625 4281674546
-991.14911 -49.563217 19.229553 4280628012
-988.91107 -43.479309 17.694458 4281282102
-984.97369 -33.164444 19.496948 4280823350
-983.87103 -30.907516 19.818747 4281414198
-948.01837 -23.796928 18.805908 4280164608
-946.16956 -24.391397 18.740376 4280687631
-944.52716 -24.784065 18.455063 4280819481
-1007.1237 -92.572922 22.175232 4280365880
-1007.6456 -92.305107 22.27179 4281150270
-1006.9248 -91.359459 21.70425 4280692790
-1006.3345 -89.236168 22.319031 4281412653
-1004.3784 -84.499367 22.235779 4281479225
-1002.1154 -78.214569 22.145386 4281412909
-999.21143 -70.567848 21.591776 4281477934
-997.56744 -66.825829 21.79425 4281085743
-997.25873 -65.648705 21.558594 4280692025
-996.60187 -64.14798 21.626207 4281478707
-995.28772 -60.413624 22.400146 4281545005
-994.95972 -60.505791 21.736862 4281283119
-995.16406 -59.5494 21.498138 4281019445
-994.35114 -58.795914 21.673759 4281413681
-993.54736 -56.374645 21.533941 4281348658
-992.78906 -54.604542 22.208862 4280823864
-991.64392 -51.469505 21.186625 4281216296
-990.64178 -48.883556 21.709198 4281020464
-989.74506 -47.269852 22.341003 4281675831
-988.56598 -43.66254 21.578264 4281545529
-987.95734 -41.694069 21.683784 4281348149
-987.40686 -40.797886 22.223984 4281347892
-986.35803 -38.302486 21.690872 4281413687
-985.73077 -36.195568 21.758495 4281610806
-985.35284 -34.600632 21.950989 4281938225
-984.63666 -33.227257 21.307678 4281610547
-983.77545 -31.196157 21.627981 4281611316
-982.97406 -28.695681 21.698788 4281545269
-982.30298 -27.847404 21.818817 4281479731
-982.66168 -27.400131 21.699524 4281609521
-981.87372 -26.290056 21.843882 4281216821
-945.58167 -25.184219 21.208672 4280622600
-944.12543 -25.502924 21.287668 4280361496
-980.95471 -23.97197 21.578552 4281545008
-948.53271 -23.954781 21.219872 4280097036
-946.71912 -24.600849 21.287628 4280491536
-1010.3804 -101.31822 23.770416 4281151792
-1009.7561 -100.26517 24.704651 4281546038
-1010.1726 -99.679062 23.541992 4281678388
-1009.3431 -98.64077 24.063686 4281414450
-1008.525 -96.202415 23.62945 4281217080
-1007.6693 -93.969795 23.609459 4281480242
-1007.1348 -93.396156 23.613974 4281415218
-1006.3293 -90.992477 23.413189 4281414197
-1005.603 -88.777908 23.488827 4281611319
-1004.9089 -87.746445 24.151093 4281612345
-1005.4158 -87.314705 23.324097 4281938486
-1004.5774 -85.990318 23.687433 4281806903
-1003.7721 -83.73217 23.678883 4281283377
-1002.9322 -81.453667 23.5098 4281151539
-1002.2258 -80.373695 24.584473 4281086260
-1002.7213 -79.685471 23.404785 4281607424
-1001.7513 -78.617203 23.850895 4280889649
-1000.8148 -76.438087 23.407415 4281545775
-1000.2191 -74.008347 22.926891 4281085475
-999.61633 -73.03569 23.747768 4281087281
-999.00751 -71.164078 23.689199 4281479471
-998.09235 -68.844109 23.527023 4280955188
-997.47363 -67.803429 23.870819 4281611835
-997.51843 -67.30378 22.903625 4280889904
-996.90942 -65.998344 23.832054 4281152564
-996.02588 -63.774342 23.724842 4281217845
-995.41614 -61.692669 23.421318 4281676341
-994.70953 -60.9552 23.926809 4281611578
-994.0863 -58.867546 23.432137 4281349426
-992.854 -55.82946 23.934402 4281545781
-992.65381 -54.880798 22.680298 4281413945
-992.00507 -53.377583 23.804058 4281021488
-991.10168 -51.178139 23.976475 4281545261
-990.2652 -48.90493 23.585955 4281021235
-989.68201 -47.720932 24.481689 4281152566
-989.27997 -46.524738 24.024038 4281610808
-988.11359 -43.609108 23.7479 4281742903
-987.78772 -42.223221 22.900452 4281676602
-987.2038 -41.257324 23.919598 4281480504
-986.39014 -39.001648 23.510277 4281611065
-985.31158 -36.356514 23.517447 4281611576
-984.83496 -35.151398 24.31308 4281872683
-984.36945 -33.712715 23.494862 4281742392
-983.3941 -31.332281 23.588753 4281742131
-982.75964 -29.376358 23.247559 4281807928
-982.12323 -28.164942 24.041285 4281218360
-981.45294 -26.346581 23.5755 4281610808
-946.13739 -25.37586 23.503183 4280488216
-944.25916 -25.86462 23.234192 4280034068
-980.54187 -23.842239 23.447021 4281610295
-947.99353 -24.815725 23.352661 4280558367
-947.23804 -24.820526 23.399506 4281277708
-1009.6758 -100.80563 26.096436 4281217833
-1008.858 -98.855148 26.174877 4281415222
-1007.9472 -96.302284 26.110321 4281611326
-1007.3594 -95.151695 27.021851 4281546552
-1006.9866 -93.989021 26.101492 4281480756
-1006.0479 -91.415321 26.048182 4281414198
-1005.1401 -89.067833 26.06134 4281284410
-1004.8226 -88.026375 26.028961 4281874491
-1003.2377 -84.014038 26.132904 4281414453
-1002.563 -82.102287 25.878937 4281937984
-1002.4971 -82.287186 27.426147 4281611066
-1001.246 -78.678078 26.499304 4281480242
-999.961 -75.17144 26.359903 4279054135
-1000.0123 -74.710052 25.272156 4281414196
-999.12988 -72.990616 26.084484 4281611831
-998.47192 -71.120323 26.29319 4281414453
-997.88672 -69.33757 25.827484 4281741360
-997.39105 -68.247147 26.011209 4280956728
-996.73712 -66.598885 26.208776 4281481267
-995.67987 -63.667061 26.19042 4281152824
-995.13135 -62.108475 26.107788 4281612098
-994.46796 -60.940372 26.248886 4281808182
-993.79938 -58.832905 26.075174 4281545779
-992.89795 -56.713181 26.192673 4281480496
-992.17725 -55.031754 27.358032 4281349173
-991.9472 -54.059875 25.867859 4281415220
-990.93311 -51.425488 25.819458 4281414195
-990.28644 -49.742722 25.845703 4281480238
-989.79254 -48.65448 26.053415 4280825141
-988.86517 -46.291729 26.59083 4281414712
-987.90698 -43.811321 26.112326 4281677366
-987.34265 -42.514908 27.22229 4281546052
-986.88202 -41.173115 26.234741 4281743416
-986.20831 -39.182045 26.337305 4281611581
-985.18848 -36.858131 26.119446 4281808443
-984.79529 -35.595863 25.862549 4281873461
-984.14685 -33.949444 26.000244 4281676087
-983.33936 -31.905632 25.995626 4281676857
-982.53345 -29.583778 26.348892 4281676858
-982.04675 -28.561714 26.164383 4281349690
-981.08557 -25.997417 25.844025 4281741370
-947.97186 -25.176819 25.778442 4282201393
-946.64459 -25.454994 25.569305 4280624938
-980.59912 -24.741631 26.057587 4281742134
-1009.5297 -101.17258 28.947754 4281348665
-1008.4734 -98.570427 28.751692 4281414712
-1007.6248 -96.087677 28.244629 4281741629
-1007.2667 -95.406418 28.925842 4281348665
-1006.6227 -93.857216 28.807556 4281087797
-1005.8647 -91.455299 28.638208 4281283379
-1005.0725 -89.257339 27.536377 4281152316
-1004.7328 -88.28051 28.005829 4281415227
-1003.0349 -84.13604 28.95047 4281676848
-1001.4317 -80.036896 29.749023 4281546546
-1001.0349 -78.811722 28.955811 4281741871
-999.09491 -73.42556 28.700123 4281677102
-998.09564 -70.84893 28.672647 4281479729
-997.61237 -69.435097 28.77417 4281611317
-996.97211 -67.711372 28.676352 4280956732
-996.64386 -66.993797 28.762003 4281873980
-995.36212 -63.536594 28.609341 4281283640
-994.9928 -62.926392 29.954041 4281152052
-995.07861 -62.33606 27.641602 4281350467
-994.26013 -60.956337 28.588587 4281611057
-993.54865 -58.964172 28.812756 4281480241
-992.78259 -57.116982 28.414642 4281545259
-992.26453 -55.691261 28.586731 4281218867
-991.44568 -53.314659 28.070923 4281611833
-990.32977 -50.38826 28.050455 4281676592
-989.63586 -48.972279 28.641205 4280955957
-988.65125 -46.25375 28.950085 4281611576
-987.62585 -43.65535 28.665222 4282005039
-987.31842 -42.710281 28.121826 4281808451
-986.81641 -41.734272 28.696808 4281283386
-986.03406 -39.225952 28.127258 4281546045
-984.6084 -35.688393 28.451527 4281939514
-983.44946 -32.734436 28.420685 4281742898
-983.1261 -32.060295 28.277161 4281807412
-982.06299 -29.011297 28.124533 4281218615
-1008.1179 -98.547791 31.126282 4281546295
-1006.8423 -95.317841 30.765778 4281544760
-1006.1802 -93.26284 31.377768 4281152299
-1003.9189 -87.678131 31.3974 4281414707
-1003.6691 -86.722923 31.804352 4281087025
-1002.7358 -84.098267 31.081787 4281808435
-1001.3822 -80.319679 30.854004 4281414200
-1000.0681 -77.038666 31.53241 4281480500
-998.80536 -73.497292 31.011942 4281481269
-997.84015 -70.868462 31.110046 4281479975
-997.54785 -69.794312 30.419556 4281938490
-996.57617 -67.320038 30.587769 4281610041
-995.30255 -63.914261 30.219727 4281414973
-994.28516 -61.907993 31.543741 4281743416
-993.3595 -59.166367 30.436554 4281218863
-992.04083 -56.340137 31.159618 4281546544
-991.44672 -53.835144 30.134155 4282199607
-990.1665 -50.378357 30.019043 4281873975
-988.21027 -45.705246 30.867615 4281675830
-986.90118 -42.807388 31.525248 4281676603
-1006.1059 -93.611252 32.862732 4281545004
-998.72131 -73.929276 33.087036 4281153325
-995.13232 -65.494774 34.420269 4281416251
-994.19977 -62.887867 33.575947 4281480764
-994.2395 -62.37709 32.677368 4281348670
-991.94067 -57.287075 33.965191 4281415221
-990.69189 -53.837593 32.84201 4281218612
-951.38422 -25.704308 34.305267 4282071867
-1005.8817 -95.224976 37.025848 4282070593
-999.71259 -78.685989 36.984619 4281152308
-998.02069 -74.131859 36.716412 4281807421
-995.15729 -66.457108 36.487652 4281414714
-994.07202 -63.938034 36.964966 4281481018
-992.17542 -58.788277 36.446838 4281021752
-991.35938 -56.85199 36.986938 4281153333
-990.38416 -54.212463 36.518127 4280759338
-989.92749 -52.859177 37.10614 4281807927
-985.14178 -40.838425 36.775452 4281481275
-980.99426 -30.327782 36.698517 4281546039
-950.43188 -26.027861 35.907906 4282006077
-948.31573 -26.385122 37.054913 4282203704
-955.02991 -24.510345 37.316223 4282400567
-950.92212 -24.966476 35.714294 4282399547
-977.81061 -21.794907 37.294617 4281285176
-977.17664 -20.085175 37.218994 4281348394
-964.62964 -20.075684 37.039978 4282137911
-961.38074 -21.294121 37.36377 4281285438
-958.65027 -22.06601 37.33786 4281941058
-976.87152 -18.976707 36.58252 4282267704
-965.77289 -19.502394 36.559753 4282202170
-964.97583 -19.585823 35.799438 4282136644
-1007.8327 -101.20093 39.493271 4281152567
-1006.9413 -98.554871 38.87075 4281218099
-1006.1047 -96.494507 38.955887 4281676349
-1005.374 -94.295616 38.783978 4281939002
-1004.2818 -91.485252 39.464661 4281545781
-1003.2366 -88.508194 39.157135 4282004525
-1002.5959 -87.149719 39.034973 4280889141
-1001.9427 -85.117584 39.655518 4281284147
-1001.312 -83.629036 39.371216 4280823608
-1000.4191 -81.316223 39.372143 4281479991
-999.48322 -78.489853 39.05072 4281480500
-998.56268 -76.262794 39.132305 4280824117
-997.89142 -74.284027 38.701904 4281479989
-997.48602 -73.602814 39.470612 4281152571
-996.77216 -71.320229 38.854137 4281611314
-995.78613 -68.74382 39.153038 4281480250
-995.30096 -67.462433 38.335144 4280824888
-993.95398 -65.044724 39.981018 4282201894
-993.87061 -63.900154 38.869438 4281415477
-992.73932 -61.029602 38.569763 4281743146
-992.41138 -60.285015 38.830063 4281611564
-991.82373 -58.359905 39.049053 4281479993
-991.03583 -56.417835 38.941212 4281349174
-990.35284 -54.632751 38.668823 4280431143
-989.76562 -53.183659 38.739716 4281415213
-988.58514 -50.006088 39.466614 4281676589
-988.0174 -48.602905 38.6651 4281808436
-987.09198 -46.369816 38.897968 4281741622
-985.80707 -43.045921 38.938431 4281480501
-985.20428 -41.761429 39.371605 4281088055
-984.76709 -40.635101 38.913239 4281349689
-984.32941 -39.240097 38.843616 4281612350
-983.22015 -36.452423 38.982712 4281677367
-982.10266 -33.348595 39.122192 4281808447
-981.27197 -31.528145 38.866486 4281611836
-943.40662 -28.398548 39.290489 4282268479
-942.47882 -28.470947 39.938293 4282400327
-979.25452 -25.719519 38.676342 4281480249
-950.60461 -25.675369 37.669006 4281874762
-948.63843 -26.594191 39.060406 4282072124
-945.64136 -27.316263 39.292969 4282072126
-944.85291 -27.298264 39.253357 4282203966
-978.27039 -23.144524 38.648087 4281546559
-958.04004 -23.138288 39.574455 4282137665
-953.61853 -24.444323 39.277855 4281613362
-977.90161 -22.196762 38.449627 4281481530
-977.15643 -20.42207 38.439484 4281283382
-965.70142 -20.485723 39.443562 4282006331
-963.51025 -20.88743 39.563599 4281940799
-961.47992 -21.556913 39.121895 4282071870
-958.58136 -22.12414 38.822475 4282269502
-976.68048 -18.963442 39.014252 4281743160
-971.62531 -18.050743 39.565643 4282203713
-969.07861 -18.46389 38.537445 4282137661
-966.38403 -19.590813 38.702927 4282202423
-964.97681 -19.935829 38.062256 4282398516
-972.68365 -114.55225 42.01593 4281478707
-1001.5578 -110.8497 41.684692 4279842870
-1004.7855 -109.64706 42.201416 4281283895
-1008.1939 -102.69306 41.851807 4281742136
-1007.8686 -101.73775 41.03664 4281479993
-1007.2287 -100.04581 42.158997 4280954929
-967.30292 -100.38287 42.263123 4280954677
-1006.6355 -98.568237 41.108444 4281152055
-991.34784 -98.468735 42.397339 4281151521
-1005.7177 -96.153389 41.314541 4281479994
-1005.21 -94.41925 41.16861 4281742394
-1004.6051 -93.343369 42.064987 4281479986
-1003.9612 -91.251755 41.304127 4281612083
-990.30182 -90.755638 42.419392 4281022261
-988.82385 -90.45826 42.378319 4281349422
-986.5733 -90.395996 42.316139 4281086515
-984.62347 -90.324821 42.311203 4280759339
-980.521 -92.061188 42.4422 4281743154
-979.67712 -92.040894 42.413025 4281153076
-1003 -88.725868 41.117588 4281610805
-1002.4641 -87.683075 41.973755 4281546044
-1002.5449 -87.420013 40.133728 4281478968
-1001.9877 -86.052971 41.597256 4280955191
-1001.1285 -83.868988 41.567326 4281348922
-1000.438 -81.835785 41.221725 4281152562
-999.94617 -80.735397 41.521149 4281480243
-999.36426 -78.783516 41.277023 4281610800
-983.64825 -78.223022 42.215782 4281283128
-998.36902 -76.455681 41.271687 4281348916
-997.737 -74.79084 41.166382 4281348140
-997.29089 -73.609055 41.212452 4281414451
-991.15039 -74.333923 42.220104 4281216816
-980.81989 -73.906906 42.110413 4281284143
-979.63855 -73.877243 42.069519 4281545523
-957.19641 -73.49102 41.926712 4281019697
-996.43719 -71.125046 41.152634 4281218619
-995.47656 -68.587425 41.422947 4281415209
-994.28607 -65.784904 41.458599 4281611064
-993.45801 -63.290272 41.057301 4281743413
-992.76129 -61.586216 41.277851 4281939505
-992.3197 -60.752556 41.687836 4282135855
-991.5874 -58.685513 41.511978 4281152572
-990.5824 -56.140614 41.439358 4281283385
-988.72485 -55.256939 42.262085 4281610290
-987.27118 -55.240601 41.808941 4281284918
-983.48859 -55.107513 42.465088 4281873206
-981.63354 -55.061417 42.40086 4281479478
-990.125 -54.731827 40.869476 4280431927
-988.89807 -54.067947 41.713463 4281152300
-987.28564 -54.677601 41.797832 4281283899
-983.37799 -54.718731 42.453327 4281807927
-981.63531 -54.226982 42.38369 4281348402
-979.18646 -54.438534 42.415897 4280955953
-976.83984 -54.192097 42.354919 4281611313
-974.0658 -54.019569 42.293411 4281152570
-950.33209 -52.676529 42.430725 4280825908
-988.66095 -50.876446 41.078968 4280889650
-985.53705 -51.00647 42.341984 4281481015
-982.38647 -52.039307 42.363789 4281283129
-987.79132 -49.180569 41.546944 4281611829
-986.54364 -48.433086 41.743591 4281808944
-976.71112 -49.521652 42.429688 4280892216
-986.79468 -46.350033 41.263786 4281545527
-980.5968 -45.369362 42.476124 4281152313
-978.79755 -45.23798 42.411907 4281283134
-975.85712 -45.259708 42.312397 4281611315
-974.40503 -45.191296 42.261456 4281545016
-985.73462 -43.478119 41.554802 4281873459
-983.34039 -44.378525 42.410263 4281545783
-980.55145 -44.559982 42.365303 4281152312
-978.57635 -44.510971 42.303555 4281545784
-975.60571 -44.433052 42.24041 4281742650
-974.31348 -44.402821 42.149403 4281218363
-960.69708 -42.694122 42.137238 4281415443
-958.01581 -43.212463 42.195415 4281481534
-956.76459 -43.112839 41.886215 4281546292
-953.22339 -42.994579 42.407028 4281546293
-951.19965 -43.05542 42.340649 4281611833
-946.75653 -43.399799 42.320545 4281087797
-985.02576 -41.915779 41.41861 4281283891
-984.64014 -41.196609 41.927937 4281349176
-960.72821 -41.410339 41.876781 4281677366
-958.28833 -41.938599 42.020523 4281742652
-956.29675 -41.607368 42.083008 4281283638
-953.87097 -41.718498 42.406719 4281086773
-951.43286 -41.620926 42.350964 4281677105
-947.04248 -41.910721 42.31723 4281480756
-983.88495 -38.841351 41.551605 4281873978
-982.96967 -36.498146 41.244308 4281677624
-982.48462 -35.354324 41.696136 4281480758
-981.86621 -33.369389 41.256916 4281677630
-978.48694 -33.034565 42.044811 4281414708
-976.14832 -33.207172 42.024483 4281480244
-973.23145 -33.053627 42.081367 4281415223
-971.45239 -33.218243 41.951668 4281677621
-968.953 -33.372551 41.929558 4281087540
-966.5127 -32.95211 42.273003 4281481019
-964.66998 -32.500885 42.200867 4281873725
-956.44611 -32.689095 42.479286 4281021756
-981.06915 -31.471085 41.31184 4281284921
-978.33325 -31.306738 41.944748 4281546034
-976.21948 -31.248516 41.506485 4281480505
-973.80573 -31.152626 41.687218 4281611577
-971.28906 -31.211115 41.832119 4281546552
-968.79102 -31.10445 41.819157 4281611833
-966.23981 -31.134354 41.768478 4281677623
-963.81897 -31.104313 41.928928 4281742904
-961.42932 -31.288322 42.114468 4281481016
-958.72101 -31.242922 42.257168 4281677371
-956.61328 -31.281954 42.166363 4281481019
-953.43378 -30.523994 42.217747 4281480502
-951.00208 -30.652571 42.282097 4281677884
-943.05286 -30.253967 42.427948 4281940793
-978.84851 -29.223164 42.162655 4281546294
-976.00635 -29.021463 42.052567 4281480761
-973.72943 -28.673691 42.24052 4281546554
-971.47101 -28.700617 42.170151 4281874230
-968.81671 -28.58861 42.000565 4281808953
-966.31158 -28.655396 41.851864 4281546550
-963.91827 -28.730766 41.74036 4281743157
-961.66296 -28.558058 42.106808 4281742901
-958.37024 -29.840252 42.272259 4281415484
-956.4585 -29.72965 42.25473 4281546807
-953.72656 -29.653875 42.255463 4281218865
-951.14526 -29.495512 42.211365 4281808693
-948.11249 -27.671455 41.850845 4281941314
-946.05389 -28.000925 41.485634 4281941311
-943.87482 -28.788364 41.568272 4281941052
-942.49274 -29.401255 41.227722 4282138437
-979.0105 -25.988293 41.567169 4281546039
-975.9986 -26.308645 42.400337 4281414968
-973.83643 -26.616718 42.387077 4281480758
-971.112 -26.563286 42.297638 4281873721
-968.70117 -26.534912 42.125324 4281611833
-966.14124 -26.511511 41.943432 4281677107
-963.88568 -26.485588 41.797359 4281874233
-961.35724 -26.283281 41.958977 4281546808
-958.77185 -26.101196 42.354736 4281677624
-956.22717 -26.0016 42.136055 4281743670
-953.68323 -25.797981 41.530895 4282006074
-951.38501 -25.510059 41.133457 4282333759
-948.4455 -26.97505 40.901516 4282006594
-946.45929 -27.247829 40.965889 4281679165
-978.1817 -23.580656 41.566116 4281873464
-976.20264 -23.280727 42.406689 4281611571
-972.98669 -23.817057 42.119331 4281415472
-961.05005 -22.608929 42.134964 4282136889
-958.61707 -23.259827 41.311424 4282072124
-956.31012 -24.212881 41.248528 4282071867
-953.90808 -24.726009 40.62952 4281941053
-952.02985 -24.959518 40.43631 4282137922
-977.76532 -22.376541 40.273438 4282004801
-976.71027 -21.399153 42.072742 4281939766
-974.23596 -21.152485 42.052948 4281939770
-970.88104 -20.921066 42.157543 4281808951
-968.96899 -20.314339 42.210499 4282071611
-966.29962 -20.462778 41.696362 4281941053
-963.48944 -21.328457 41.545151 4282137919
-961.42914 -22.004068 41.262257 4282071355
-959.18359 -22.449484 40.540447 4282268737
-957.15808 -22.406357 40.415039 4282071606
-976.06464 -18.552107 41.73465 4281677885
-973.82831 -18.564482 42.027679 4281809471
-971.15027 -18.733925 41.678032 4282006331
-968.79016 -19.087616 41.3895 4282137149
-967.02472 -19.596983 41.588715 4281809209
-974.69177 -16.688107 41.465279 4281875518
-979.97803 -118.49654 44.890869 4281676593
-977.26642 -119.05334 44.903728 4281415480
-988.51868 -115.36358 43.750881 4281218363
-985.81323 -115.61942 44.324776 4281611576
-983.79407 -115.87219 44.494377 4281743160
-980.57843 -115.70435 44.931301 4281349686
-978.85895 -115.14241 44.92347 4280955704
-976.55841 -115.09359 44.92395 4281152573
-994.12469 -112.69238 44.903152 4281546808
-990.81335 -113.65728 44.357891 4281152559
-988.43683 -114.05797 44.286602 4281676855
-986.27386 -114.54514 44.349815 4281545781
-983.92395 -114.53408 44.33604 4281480498
-980.94269 -114.59695 44.813145 4281414966
-978.67285 -114.29589 44.808838 4281545784
-976.63934 -114.14667 44.807156 4281676342
-972.3761 -113.02892 43.292267 4280889380
-1000.6111 -110.06074 44.742035 4281677110
-999.13776 -110.27626 44.645962 4281151803
-996.25433 -111.19722 44.294029 4281479985
-994.05542 -110.8765 44.576164 4281218357
-991.80212 -110.65252 44.574242 4281414459
-988.28217 -110.66419 44.452087 4281742651
-986.47363 -110.52241 44.634823 4281611321
-983.81354 -110.41281 44.643997 4281283386
-1005.2657 -109.68872 42.811096 4281349165
-1003.619 -109.04696 43.979191 4281546036
-1000.6611 -109.28389 44.823254 4281938743
-999.28595 -109.44575 44.877682 4281348405
-996.28314 -109.63198 44.902569 4281480241
-993.39911 -109.37624 44.688396 4281677368
-992.021 -109.56524 44.523476 4281481017
-988.64056 -109.85089 44.441589 4281152051
-983.72021 -109.65226 44.375538 4281349172
-981.21008 -109.94814 44.727028 4281808184
-972.15326 -108.14941 44.947144 4281609524
-1008.0296 -105.89917 44.740181 4281349686
-1006.1486 -105.64948 44.769676 4281611061
-1004.2593 -105.74623 44.882893 4281414963
-1000.5035 -106.07211 44.94313 4281742130
-999.87299 -105.56579 44.911175 4281086001
-1007.8377 -103.8675 44.598083 4281349173
-1006.1005 -104.11833 44.495716 4281480243
-1003.3162 -103.98206 44.839214 4281218103
-1001.0692 -103.8969 44.692276 4281086767
-998.80359 -103.71245 44.556087 4281479735
-996.41693 -103.46458 44.515907 4281414705
-993.77368 -103.50089 44.487705 4281546038
-991.17273 -103.26984 44.693016 4281545526
-988.86749 -103.02067 44.86298 4281545520
-986.37366 -103.12061 44.782406 4281480243
-983.61115 -103.26545 44.559666 4281546289
-981.23767 -103.07915 44.766846 4281480246
-978.79657 -103.09806 44.541542 4281676853
-977.09253 -102.86417 44.716438 4281545012
-973.58606 -102.68822 44.345661 4281349170
-970.81152 -102.93108 44.698849 4281479724
-1007.765 -102.15417 44.054321 4281741874
-1006.089 -100.83971 44.467003 4281349174
-1003.9957 -100.68569 44.684776 4281283377
-1001.0625 -100.42126 44.472511 4281348146
-998.46484 -100.79944 44.411613 4281479989
-996.38934 -100.85007 44.43713 4281414198
-993.6651 -100.90955 44.257797 4281872949
-991.33337 -100.8295 44.157745 4281218102
-988.65155 -101.13544 44.275402 4281479989
-986.23871 -101.32829 44.265049 4281217844
-983.7702 -101.4331 44.251144 4281676851
-981.17114 -101.62489 44.602448 4281414713
-978.72632 -101.32672 44.158157 4281676595
-976.14325 -101.40178 44.092823 4281283124
-973.71191 -101.4293 43.847286 4281545268
-971.3338 -101.43048 44.021053 4281545525
-969.18286 -101.18126 44.456085 4281152560
-1005.8417 -98.898697 43.910141 4281348916
-1003.822 -98.75045 44.164192 4281414963
-1001.2853 -98.73008 44.188576 4281348659
-998.73383 -98.861679 43.733009 4281283121
-996.20728 -99.00576 43.844566 4281611317
-993.76196 -99.178955 43.324207 4281414455
-991.17267 -99.021538 43.230106 4281414449
-988.81219 -99.037163 43.492577 4281283125
-986.23584 -99.038483 43.49815 4281611316
-983.76031 -98.939407 43.674984 4281152565
-981.32196 -98.832329 43.922958 4281545780
-978.80682 -98.79908 44.026943 4281283634
-976.25336 -98.785477 43.715736 4281414194
-973.72119 -98.813103 44.250282 4281414449
-971.26941 -98.731148 44.423923 4281283376
-968.61218 -98.624184 44.396294 4281348917
-967.30646 -98.34008 44.126308 4281348144
-1005.4223 -96.499298 43.765175 4281086773
-1003.8555 -96.254883 44.421574 4281545269
-1001.1384 -95.945564 44.605972 4281545261
-998.84625 -96.079414 44.488338 4281283379
-996.22327 -95.993317 44.775291 4281545528
-990.80841 -97.027451 44.89473 4281611319
-989.62982 -96.998314 44.854156 4281545013
-978.12646 -97.255531 43.774788 4281546290
-976.32257 -97.289932 43.37851 4281742132
-973.81012 -97.261002 43.792633 4281349174
-971.09387 -97.080101 44.224953 4281414969
-968.73761 -96.967957 44.23806 4281414708
-967.05316 -96.958397 43.857918 4280889902
-1003.6195 -93.995529 43.806072 4281480245
-1001.2207 -93.850021 43.843655 4281348659
-998.82477 -93.83654 43.682373 4281283125
-996.20807 -93.757904 44.041653 4281479986
-993.88184 -93.75811 44.011379 4281545525
-991.21985 -93.632622 44.278824 4281676600
-988.8349 -93.423241 44.439896 4281413941
-986.21338 -93.303551 44.356121 4281283384
-983.72839 -93.330933 44.560238 4281349173
-981.35516 -93.227211 44.396084 4281611318
-978.80243 -93.130264 44.365639 4281480245
-976.78113 -93.083443 44.542332 4281479985
-972.82043 -92.936203 43.861153 4281348918
-971.37115 -92.84922 44.240021 4281479475
-969.14789 -92.668221 44.229939 4281480248
-966.15271 -92.700401 44.477486 4281808947
-1003.2258 -91.416473 43.958523 4281414711
-1001.2721 -91.241882 44.195396 4281348918
-998.73151 -91.309082 44.361217 4281611060
-996.19775 -91.134415 44.540554 4281348913
-993.70282 -91.324387 43.753998 4281676853
-991.26599 -91.416756 43.627853 4281283381
-988.74359 -91.594391 43.573696 4281414193
-986.22192 -91.423195 43.643627 4281349173
-983.69775 -91.326485 43.553371 4281283636
-981.27264 -91.223793 43.148563 4281349173
-978.69714 -91.230156 43.289028 4281283380
-976.26611 -91.229172 43.822701 4281348915
-973.81757 -91.232574 43.730923 4281545528
-971.237 -91.301598 43.972866 4281414193
-968.71411 -91.259331 43.842113 4281546292
-966.17517 -91.253845 44.063099 4281611318
-964.66772 -90.835861 43.587975 4281741873
-1002.795 -89.291519 43.947178 4281479477
-1001.3279 -88.719521 44.560333 4281349171
-998.53351 -89.052116 44.785095 4281479473
-996.06445 -89.255066 44.889893 4281218099
-994.75165 -89.280884 44.775257 4281611061
-991.54193 -88.185783 44.740314 4281283128
-987.84644 -87.673065 44.685242 4280038709
-985.28717 -89.908943 43.417267 4281348910
-983.2843 -89.61853 43.888828 4280824116
-981.23743 -89.398216 44.120457 4281413939
-978.73547 -89.44632 43.926369 4281151799
-976.34509 -89.349266 44.512699 4281021236
-973.68408 -89.367973 44.324463 4281348658
-971.25427 -89.372246 44.261799 4281414453
-968.72894 -89.407211 43.71574 4281611573
-966.16858 -89.455368 44.075611 4281676597
-964.34839 -89.329742 43.921261 4281349684
-1000.9729 -86.326134 44.197952 4281414448
-998.80988 -86.281822 44.317966 4281217333
-993.28711 -85.976196 44.643089 4281283130
-991.46448 -86.540749 44.398525 4281414711
-988.07672 -86.16214 44.487637 4281414450
-985.18103 -86.235535 44.901855 4281611580
-984.00684 -86.035667 44.882324 4281348656
-981.94855 -86.188591 44.797722 4281414714
-962.07275 -85.649147 44.908295 4281611053
-1000.466 -83.887955 44.366127 4280955703
-999.24634 -83.953209 44.826828 4280955955
-990.95557 -84.906189 44.541504 4281610802
-988.4295 -84.843475 44.45401 4281740601
-985.21497 -84.889481 44.910889 4281546806
-983.58661 -84.871109 44.907001 4281415201
-961.98895 -84.535484 44.829285 4280825898
-1000.1725 -81.973083 43.68573 4280628022
-998.90186 -81.142433 44.264812 4281348662
-996.11652 -80.384483 44.467716 4281414707
-993.8642 -80.432182 44.132221 4281414195
-991.09369 -80.465805 44.476402 4281349170
-988.66779 -80.329376 44.557266 4281021233
-986.14795 -80.284523 44.573559 4281610804
-983.72626 -80.161339 44.443409 4281479993
-982.14246 -80.114998 44.472198 4281873717
-968.15845 -80.195732 44.91217 4281480510
-961.00403 -80.32579 44.731636 4281873449
-998.39264 -78.90255 44.056614 4281413938
-996.0871 -79.171211 43.979168 4281414452
-993.66626 -78.890602 43.716434 4281545784
-991.26868 -78.756607 43.936577 4281414709
-988.77893 -78.819756 43.770027 4281086774
-986.23462 -78.769279 43.904026 4281413939
-983.72559 -78.87323 43.886536 4281348920
-981.21844 -78.692261 43.8652 4281349173
-978.74109 -78.586136 43.803768 4281348661
-976.37622 -78.232887 44.167938 4281217334
-973.73132 -78.378632 44.12418 4281414709
-971.21478 -78.416237 43.969643 4281349426
-968.60229 -78.682899 44.025196 4281480501
-966.19318 -78.601509 44.060661 4281807926
-963.86761 -78.494041 43.836216 4281414708
-961.22546 -78.607834 43.838184 4281414964
-959.68768 -77.839828 43.910503 4281152818
-997.96228 -76.478096 43.846642 4281479731
-996.23279 -75.607239 43.891808 4281414970
-993.58557 -76.126617 43.846336 4281545781
-991.18408 -76.302895 43.461311 4281676596
-988.72449 -76.198181 43.384251 4281479729
-986.2348 -76.300125 43.13168 4281349173
-983.828 -76.179916 43.500343 4281348916
-981.25354 -76.113907 43.916588 4281545782
-978.73047 -76.08046 43.766273 4281414195
-976.22864 -76.105576 43.705933 4281414453
-973.76263 -76.231102 44.048141 4281349426
-971.28888 -76.143417 44.002388 4281414966
-968.77417 -76.295143 43.828552 4281546039
-966.2406 -76.233681 43.922985 4281611320
-963.75952 -76.177834 43.959278 4281612083
-961.38873 -76.523308 44.016106 4281612089
-959.35236 -76.230171 44.402554 4281479985
-996.21069 -73.833908 43.915352 4281480758
-993.77771 -74.090584 43.893719 4281480508
-991.21948 -73.958832 43.841286 4281414708
-988.79242 -74.222359 43.498734 4281283124
-986.00073 -73.838013 43.932709 4281414705
-983.78864 -73.667648 43.918621 4281546290
-981.26947 -73.809479 43.750721 4281414454
-978.66754 -73.871162 43.544827 4281152050
-976.24896 -73.84745 43.240471 4281152052
-973.73669 -73.821175 43.699669 4281480244
-971.22388 -73.847328 43.768913 4281480246
-968.72107 -74.0485 43.723469 4281414970
-966.302 -73.858139 44.027512 4281742643
-963.77814 -73.779739 44.15522 4281546291
-961.28845 -73.735855 43.818272 4281349174
-958.83826 -73.642624 43.797527 4281414196
-995.69196 -71.178162 44.396461 4281349170
-993.7887 -70.54052 44.633614 4281742902
-990.86414 -70.841263 44.757118 4281480249
-989.14288 -70.597496 44.506336 4281086517
-986.29486 -70.972427 44.752399 4281611320
-983.33643 -71.282227 44.816139 4281676853
-981.27673 -71.312469 44.692558 4281152569
-978.7204 -71.263527 44.51276 4281217843
-976.26984 -71.256874 44.420792 4281414195
-974.78955 -71.192749 44.394032 4280628023
-970.67242 -71.075943 44.958549 4281676856
-968.70312 -72.118881 44.822201 4281283895
-966.28796 -71.926056 44.782707 4281611827
-995.30646 -69.215744 43.595352 4281480754
-993.75562 -68.737663 43.867851 4281480502
-991.26929 -68.608978 43.934242 4281611311
-988.69446 -68.789986 43.827881 4281676597
-986.27948 -68.663605 43.798565 4281676856
-983.91327 -68.676308 44.073227 4281480248
-981.34467 -68.535179 44.302856 4281414196
-978.75391 -68.251282 44.483017 4281610542
-976.19415 -68.647789 44.585087 4281349169
-973.93195 -68.50396 44.464203 4281480247
-971.10907 -68.794868 44.874424 4281414710
-968.51044 -68.246864 44.857323 4281415224
-965.97766 -68.205978 44.8288 4281677108
-963.77722 -68.244308 44.740044 4281677363
-962.24646 -68.078926 44.701637 4281808437
-993.58875 -66.40937 43.303379 4281546552
-991.31482 -66.376663 43.324043 4281283637
-988.73102 -66.466736 43.275284 4281349170
-986.22528 -66.373001 43.266979 4281283639
-983.67865 -66.456161 43.176041 4281546292
-981.29742 -66.555389 43.177616 4281479990
-978.78595 -66.318504 43.843868 4281413682
-976.22217 -66.401566 43.743271 4281218098
-973.78796 -66.384003 44.130882 4281414708
-971.23395 -66.205475 44.530907 4281611571
-968.74652 -66.249596 44.216343 4281414966
-966.25055 -66.287834 44.139507 4281480240
-963.78809 -66.191368 44.095062 4281546291
-961.47626 -65.860878 44.237408 4281415479
-958.7196 -65.633202 44.084625 4281808437
-956.14764 -65.89843 44.042526 4281480246
-992.96344 -63.875591 43.700718 4281349428
-991.15405 -63.774502 44.228886 4281349174
-988.8689 -63.666771 44.580578 4281480244
-986.2226 -63.695351 44.479668 4281479732
-983.8197 -63.661545 44.409237 4281480502
-981.61847 -63.284016 44.357716 4281742137
-978.81494 -63.469982 44.723946 4281217336
-976.15576 -63.641212 44.464119 4281610797
-973.95618 -63.752731 44.395519 4281283639
-971.27655 -63.7318 44.387207 4281479984
-968.75012 -63.790108 44.238823 4281480500
-966.22675 -63.73164 44.096611 4281545781
-963.74823 -63.597462 44.288486 4281677111
-961.25714 -63.810844 44.273811 4281480758
-958.91589 -63.802727 44.203949 4281414453
-956.28693 -63.868694 44.029255 4281545781
-954.59509 -63.831516 44.441242 4281478965
-992.65656 -61.962029 43.043274 4281938488
-991.19971 -61.359829 44.438423 4281414455
-988.81543 -61.436054 44.66729 4281479990
-986.36414 -61.332169 43.978706 4281545781
-983.92169 -61.433586 44.1633 4281545529
-981.26544 -61.204117 44.628387 4281414967
-978.71802 -61.210526 44.486694 4281414199
-976.23035 -61.17477 44.110813 4281283636
-973.69452 -61.247955 43.925461 4281414965
-971.24103 -61.234703 44.260918 4281611829
-968.77594 -61.27 44.420914 4281480504
-966.2901 -61.294209 44.391521 4281676855
-963.76617 -61.244343 44.072624 4281480500
-961.22241 -61.240807 44.170479 4281677368
-958.78864 -61.201229 44.158306 4281546292
-956.2019 -61.17263 44.46909 4281677111
-954.07056 -61.014217 44.301579 4281414964
-952.49274 -60.462662 42.789551 4281347639
-990.78735 -58.965092 44.001732 4281414449
-988.79639 -58.748291 44.223137 4281545523
-986.19714 -58.715488 43.975468 4281742390
-983.7243 -58.66396 44.141865 4281349173
-981.20514 -58.76614 44.182003 4281479737
-978.84875 -58.744442 44.208912 4281414965
-976.33771 -58.736401 44.128151 4281414709
-973.73236 -58.732239 44.373299 4281479984
-971.23621 -58.7542 44.418556 4281414454
-968.71167 -58.758057 44.327209 4281546293
-966.53534 -58.880955 44.441757 4281545783
-963.70905 -58.944241 44.392517 4281677109
-961.27588 -58.828461 44.543201 4281546297
-958.88025 -58.684334 44.566628 4281480498
-956.15839 -59.0382 44.604206 4281546294
-954.16309 -59.512638 44.631668 4281546040
-990.29492 -56.727646 43.276157 4281086778
-988.63818 -56.302101 43.3787 4281676082
-986.30292 -56.311584 43.701202 4281480248
-983.77985 -56.280148 43.381447 4281545782
-981.19623 -56.16103 43.600739 4281479734
-978.74615 -56.108189 44.140697 4281414455
-976.15277 -56.146179 44.293335 4281545782
-973.78619 -56.247898 44.298935 4281610807
-971.26288 -56.241444 44.405628 4281545526
-968.8609 -56.175793 44.289501 4281414967
-966.46973 -56.074272 44.033085 4281808181
-963.81879 -55.95356 44.507545 4281742137
-960.9939 -55.97187 44.485104 4281545528
-958.63208 -55.987255 44.646942 4281480251
-956.33246 -56.202927 44.558754 4281414968
-953.73834 -55.440472 44.674625 4281218356
-951.72449 -55.385059 44.636551 4281676337
-988.58087 -53.605762 42.977436 4281020715
-986.13831 -53.692005 43.216412 4281349432
-983.81372 -53.537186 43.082619 4281546040
-981.21161 -53.389629 42.819275 4281480245
-978.53723 -53.445633 43.233181 4281217841
-976.00677 -53.540108 43.348049 4281742133
-973.69934 -53.831234 43.265388 4281349431
-971.19818 -53.81707 43.557976 4281676594
-968.7301 -53.78862 43.432583 4281415223
-966.20477 -53.808575 43.314625 4281742901
-963.84735 -53.810284 43.58342 4281611830
-961.26611 -53.765388 43.917015 4281546037
-958.76636 -53.69466 43.986652 4281546037
-956.19989 -53.816212 43.944397 4281545781
-953.69409 -53.899719 43.981384 4281414710
-951.46832 -53.710354 43.642479 4281480500
-988.16827 -51.395416 43.165466 4281283895
-986.5517 -51.37125 42.932316 4281611577
-983.78516 -51.13221 43.140015 4281480502
-981.11169 -51.222889 42.947376 4281480503
-978.69501 -51.185623 43.309986 4281479989
-976.34656 -51.242256 43.27824 4281414964
-973.78522 -51.304276 43.399544 4281479988
-971.26361 -51.267155 43.597435 4281742392
-968.73834 -51.219048 43.409424 4281546039
-966.21954 -51.162544 43.438984 4281414967
-963.70447 -51.216141 43.650772 4281546291
-961.23218 -51.255196 43.945148 4281677112
-958.81799 -51.273312 43.765785 4281218615
-956.30688 -51.243195 44.003983 4281349433
-953.76947 -51.232445 44.328011 4281349432
-951.34277 -51.212563 44.271523 4281349683
-949.59863 -50.836914 44.397198 4281218617
-986.20929 -48.674511 43.614536 4281677364
-983.75067 -48.666138 43.964088 4281742390
-981.28729 -48.650547 44.042107 4281546296
-978.73541 -48.70739 44.195637 4281414706
-976.15485 -48.754814 43.909161 4281480242
-973.68402 -48.821381 43.688057 4281611830
-971.55542 -49.124706 43.571918 4281284151
-968.63336 -48.750675 43.645161 4281611318
-966.29089 -48.763115 43.831589 4281414711
-963.70416 -48.799271 44.088268 4281873973
-961.25104 -48.717205 44.047901 4281546552
-958.74994 -48.781487 43.990108 4281677366
-956.12909 -48.921024 43.972218 4281480757
-953.82593 -48.883953 44.035507 4281153336
-951.25592 -48.866383 44.400391 4281414709
-949.10706 -48.88295 44.056232 4281546806
-985.83484 -46.335659 43.632191 4281349172
-983.7525 -46.231281 43.596161 4281414962
-981.27087 -46.318306 43.777264 4281349176
-978.8045 -46.37801 43.920734 4281479983
-976.30902 -46.401321 43.682869 4281348919
-973.71753 -46.316555 43.623138 4281545777
-971.276 -45.990883 43.821342 4281480248
-968.66602 -46.028324 43.911587 4281414452
-966.29474 -46.167866 43.994823 4281676855
-963.73267 -46.192829 44.204132 4281546549
-961.3999 -46.122326 44.228603 4281414964
-958.87164 -46.01955 44.305714 4281546040
-956.1394 -45.812897 44.426365 4281611831
-953.82385 -46.033287 44.790024 4281480500
-951.18494 -45.963169 44.180607 4281545780
-948.80798 -45.601662 44.135387 4281677112
-947.16296 -45.981915 43.372131 4281152568
-985.47821 -44.085285 43.372189 4281676591
-983.83636 -43.71793 43.163361 4281414452
-981.39246 -43.559128 43.120949 4281676854
-978.79456 -43.245464 42.904396 4281480245
-976.33716 -43.569012 42.940102 4281677110
-973.66217 -43.487881 42.89835 4281480246
-971.28943 -43.785877 43.020725 4281611572
-968.76337 -43.716705 43.098106 4281611575
-966.21112 -43.709026 43.100636 4281415221
-963.70764 -43.832222 43.263283 4281742903
-961.20746 -43.770618 43.253353 4281611320
-958.90112 -44.099541 43.290627 4281546297
-956.12897 -43.979095 43.540421 4281676853
-953.88806 -44.00642 43.480045 4281283642
-951.32269 -44.048801 43.024895 4281742902
-948.6618 -43.660313 43.324436 4281481014
-947.08905 -43.568569 43.257942 4281415476
-983.55542 -41.352081 43.21199 4281611316
-981.32843 -41.278896 43.372837 4281348664
-978.7666 -41.240425 43.452789 4281414197
-976.284 -41.239719 43.357986 4281546038
-973.65784 -41.297058 43.549114 4281414709
-971.18311 -41.309772 43.484848 4281479991
-968.8006 -41.227684 43.419933 4281677368
-966.27979 -41.235641 43.362785 4281414714
-963.79498 -41.24617 43.56498 4281546295
-961.27637 -41.238285 43.058891 4281480759
-958.94122 -41.104595 42.727211 4281349687
-956.20477 -40.905437 42.943764 4281414711
-953.50574 -40.586697 42.871487 4281479989
-950.81592 -40.804417 43.138432 4281612084
-948.80359 -41.265079 43.380539 4281742649
-946.40045 -41.015182 43.344761 4281218614
-983.1723 -38.893383 43.144318 4281807929
-981.25995 -38.714935 43.385727 4281414714
-978.75238 -38.748428 44.40699 4281217591
-976.30145 -38.74749 43.631634 4281414712
-973.77039 -38.751415 44.309185 4281480247
-971.27814 -38.732143 44.229671 4281612090
-968.72168 -38.792053 44.160961 4281480759
-966.17889 -38.744156 44.097462 4281546554
-963.77057 -38.68243 43.510464 4281677112
-961.09674 -38.59457 44.664589 4281611575
-958.7569 -38.633312 44.57515 4281349686
-956.25653 -38.732162 44.281834 4281349691
-953.7345 -38.707424 44.288071 4281414964
-951.27551 -38.759369 44.303257 4281546551
-948.74255 -38.710621 43.924068 4281808952
-946.31134 -38.650063 44.311432 4281677622
-944.70978 -37.972561 44.336018 4281284924
-982.84131 -37.095413 42.983124 4281546291
-981.21155 -36.307186 43.366482 4281611315
-978.7226 -36.308289 43.606689 4281414455
-976.21478 -36.137634 43.600468 4281480503
-973.73755 -36.261162 43.816631 4281546040
-971.2876 -36.211765 43.896198 4281742902
-968.78577 -36.318584 43.799835 4281480758
-966.26355 -36.224148 43.821411 4281611571
-963.6886 -36.283806 43.87289 4281677112
-961.15088 -36.204353 44.174835 4281611577
-958.88232 -36.341194 44.268326 4281480502
-956.1275 -36.29483 44.176239 4281611577
-953.84552 -36.19215 44.298843 4281414965
-951.31171 -36.245926 44.106159 4281546552
-948.74237 -36.216667 43.850376 4281742904
-946.29956 -36.252186 44.018154 4281612345
-944.33984 -36.074062 43.720051 4281873715
-980.99286 -33.870663 43.13258 4281611830
-978.91266 -33.997116 42.959892 4281283640
-976.38513 -34.365311 42.937981 4281480504
-973.83612 -34.005852 43.024925 4281611317
-971.01831 -34.245243 43.125118 4281743155
-968.63403 -33.890896 43.120384 4281611836
-966.26123 -33.755318 43.163933 4281546552
-963.79749 -33.873226 43.216858 4281677369
-961.27527 -33.779285 43.299644 4281611831
-958.74579 -33.714111 43.361767 4281677623
-956.25629 -33.816582 43.598698 4281612091
-953.71143 -33.74229 43.863834 4281481014
-951.17175 -33.716103 43.681976 4281349943
-948.73303 -33.591492 43.811661 4281677627
-946.22137 -33.71957 43.864929 4281677626
-944.02753 -33.726517 43.767761 4281480762
-942.36725 -32.719849 43.70813 4281414190
-980.50116 -31.439503 42.940945 4281284153
-979.61823 -31.103804 42.849281 4281414453
-974.11737 -32.232819 42.517284 4281349431
-968.22119 -32.07782 42.684174 4281808447
-963.13788 -32.089478 42.564392 4281874487
-960.19965 -30.61343 42.900433 4281415230
-959.01007 -32.150402 42.611645 4281808702
-955.44946 -31.251869 43.130634 4281022268
-953.85175 -31.417461 43.127048 4281611573
-951.25311 -31.395489 42.997807 4281218618
-948.72028 -31.226826 43.06464 4281743160
-946.16211 -31.236879 43.185581 4281546810
-943.86218 -31.370707 43.152287 4281809209
-942.27301 -31.397272 43.137402 4281808953
-980.24683 -29.868469 42.710999 4281087801
-978.65936 -28.430943 42.741962 4281480756
-976.55847 -28.231768 42.778191 4281611831
-970.64832 -28.782581 42.703835 4281218872
-962.90674 -29.154655 42.807114 4281940539
-960.83118 -28.874262 42.976864 4281873974
-958.76636 -28.551908 42.805466 4281677623
-956.18652 -28.44145 42.775982 4281677622
-953.72803 -28.553541 42.907528 4281480754
-951.34839 -28.650026 42.803623 4281742903
-948.82507 -28.790556 42.889317 4281809464
-946.38428 -29.139965 42.786621 4281808957
-944.65723 -29.378969 42.909328 4281613625
-942.20538 -29.722946 43.145264 4281941573
-978.3006 -26.425318 42.854797 4281349430
-976.5152 -26.125605 42.900818 4281611575
-973.61005 -25.624847 42.971519 4281807927
-971.34753 -25.927532 42.886204 4281939257
-968.95746 -25.30549 42.90773 4281481274
-966.27576 -25.276127 43.17981 4281873463
-963.01184 -25.273346 43.497833 4282136885
-960.32111 -27.148973 42.8409 4281612352
-958.74628 -27.278437 42.806896 4281742905
-956.27222 -27.194553 42.748291 4281612345
-953.75165 -26.864798 42.909668 4281743164
-951.46027 -26.567869 43.00555 4282071865
-949.49463 -27.104193 42.769176 4282137661
-977.93854 -24.20282 42.754177 4281808695
-976.24146 -23.732744 42.785549 4281742644
-973.8653 -23.841795 42.876965 4281546807
-971.30127 -23.688776 42.914959 4281939769
-968.75269 -23.747482 43.715111 4281677880
-966.2373 -23.72892 43.629917 4281612345
-963.76031 -23.70859 43.692654 4281677881
-961.27448 -23.680767 44.008083 4281677626
-958.98328 -24.097633 43.011898 4281809208
-956.75775 -24.447716 42.781624 4281940282
-975.4707 -21.229748 42.761944 4281808438
-973.10284 -21.343203 42.854122 4281612346
-971.57178 -21.447939 42.676567 4281677881
-968.63556 -21.522154 43.279102 4281874489
-966.3598 -21.490189 43.392269 4281743675
-963.98071 -21.873346 43.324928 4282072124
-962.07684 -22.311646 43.187866 4281743424
-975.58356 -19.047586 42.644703 4281546299
-973.72369 -18.900862 42.569321 4282070839
-972.21564 -19.631496 42.606617 4281874995
-980.32379 -117.58266 45.810852 4281809721
-978.58008 -118.16149 45.989002 4281611573
-976.23669 -118.30055 46.035004 4281283893
-974.92719 -117.85266 45.957855 4280825406
-988.65973 -115.17314 45.029114 4281350457
-983.24182 -115.89977 45.192886 4281481272
-981.24982 -115.94917 45.576683 4281546298
-978.67682 -116.34045 45.856689 4281479986
-976.29285 -116.25627 45.832489 4281349174
-974.61816 -116.14301 46.06868 4281480246
-995.26752 -112.57059 46.164429 4281546548
-993.50073 -112.7304 45.959023 4281808443
-991.15344 -113.32427 45.581142 4281349426
-988.80249 -113.54662 45.547638 4281349424
-986.00153 -113.13303 46.376503 4281545780
-983.61047 -113.3764 45.770897 4280955954
-981.48462 -113.64559 45.354084 4281611320
-978.87427 -112.99227 45.437893 4281479988
-975.98029 -113.59644 45.809666 4281479990
-973.96875 -113.68365 45.884937 4281545778
-998.22559 -110.18715 45.252686 4281152566
-995.47375 -111.55695 45.794548 4281611311
-993.39716 -111.46948 45.784649 4281611573
-991.12885 -111.53693 45.836693 4281414712
-988.78491 -111.27331 45.892464 4281480498
-986.15137 -111.4902 46.363728 4281545784
-983.8493 -111.18133 46.421574 4281545779
-981.24384 -110.95362 46.321274 4281742387
-978.80908 -111.21387 46.296761 4281611316
-976.22223 -111.2143 46.683937 4281283639
-973.71527 -111.20177 46.501774 4281152564
-972.25189 -110.56509 46.139076 4281020721
-1007.5579 -107.72408 45.519409 4281938487
-1006.0326 -107.86787 45.237415 4281414705
-1003.7213 -107.99814 45.18132 4281611318
-1001.2958 -108.46118 45.513855 4281414456
-998.63019 -108.45576 45.526085 4281283637
-996.26282 -108.37994 46.168777 4281742389
-993.80273 -108.3818 45.800457 4281676852
-991.14911 -108.60737 46.024544 4281545783
-988.80536 -108.79868 45.929955 4281348661
-986.24982 -108.77853 45.870083 4281348919
-983.70026 -108.6502 46.466282 4281611573
-981.12329 -108.72623 46.182301 4281611576
-978.62347 -108.90867 46.410118 4281283636
-976.21796 -108.82854 46.213272 4281348921
-973.85437 -108.7496 46.279919 4281349166
-972.05078 -108.72992 46.09264 4281151798
-1007.7267 -106.66288 45.182182 4281349173
-1006.3367 -106.6625 45.169624 4281611318
-1003.6719 -106.36768 45.197903 4281545524
-1001.3921 -106.29192 45.354324 4281545526
-998.70721 -106.23546 45.433117 4281283383
-996.2511 -106.24899 46.120262 4281414714
-993.78156 -106.26171 46.276348 4281414455
-991.25214 -106.15326 46.995846 4281414456
-988.77014 -106.26759 46.831673 4281479731
-986.35388 -106.25533 46.85368 4281742130
-983.67206 -106.17806 47.151501 4281611575
-981.16827 -106.24716 47.106895 4281611317
-978.6593 -106.15688 47.086273 4281349175
-976.25665 -106.37418 47.063171 4281283637
-974.06555 -106.59711 47.077682 4281349680
-971.55341 -106.53764 47.152149 4281610807
-1008.0238 -103.44675 45.053406 4281677875
-1006.5399 -103.42347 45.317558 4281611572
-1003.9468 -103.76357 45.265682 4281546293
-1001.9426 -104.23684 45.40181 4280955956
-998.55908 -103.99467 45.33353 4281348659
-996.08728 -104.0458 45.343559 4281349169
-993.6615 -104.19061 45.544937 4281414711
-991.26025 -104.50593 45.947193 4281545527
-988.68683 -104.31944 45.549114 4281348662
-986.12756 -104.38535 45.807259 4281414453
-983.79675 -104.35014 46.191936 4281611829
-981.26074 -104.04499 46.104649 4281545274
-978.6944 -103.96531 46.354546 4281349171
-976.19464 -103.80994 46.459587 4281480244
-973.87775 -103.63642 46.332333 4281479989
-971.46368 -103.49482 46.150917 4281349170
-969.66309 -103.07789 46.023403 4281479986
-1006.3377 -101.60326 45.266075 4281545784
-1003.3981 -101.5826 45.688641 4281414456
-1001.3613 -101.40942 45.600437 4281479983
-999.19281 -101.59628 45.531738 4281479986
-996.12811 -101.46808 45.427319 4281414451
-993.91425 -101.78021 45.370106 4281414199
-991.17853 -101.97025 45.289452 4281480000
-989.56348 -101.8905 45.240429 4281152311
-985.29919 -101.22749 45.228546 4281086777
-983.95715 -101.02567 45.180977 4281741876
-981.38214 -100.73518 45.105072 4281414710
-978.84204 -101.28924 45.014057 4281480502
-976.72192 -100.64435 45.246246 4281217333
-970.3327 -100.28198 45.381165 4282004271
-969.24591 -101.07294 45.609875 4281676596
-996.32825 -97.783974 45.716949 4281544503
-985.50244 -99.889313 45.195068 4281545524
-983.48279 -99.83857 45.12516 4281152567
-980.55328 -99.621948 45.021049 4281414965
-976.99939 -99.739243 45.09845 4281413938
-974.21655 -99.922264 45.007263 4281218352
-970.41943 -99.473755 45.722923 4280694066
-969.17725 -99.369926 45.719009 4281873201
-967.34064 -98.837418 45.914185 4281413915
-1002.8801 -96.247932 45.179657 4281217592
-1001.3147 -96.446823 45.170605 4281020717
-998.68817 -96.341179 45.274399 4281086771
-996.33331 -96.291916 45.652306 4281545528
-993.73517 -96.262306 45.708202 4281611061
-991.38428 -95.983223 45.62056 4281545781
-988.65997 -96.042992 45.805939 4281217588
-986.25659 -96.117676 45.896667 4281479734
-983.73309 -96.007828 45.939976 4281479738
-981.22888 -95.959244 46.228203 4281479988
-978.81238 -95.800735 46.156548 4281021490
