# .PCD v0.7 - Point Cloud Data file format
VERSION 0.7
FIELDS x y z rgba
SIZE 4 4 4 4
TYPE F F F U
COUNT 1 1 1 1
WIDTH 1120
HEIGHT 1
VIEWPOINT 0 0 0 1 0 0 0
POINTS 1120
DATA ascii
-971.25372 -86.153465 23.732233 4284505686
-1032.7128 -84.909576 23.343994 4284442986
-1032.3958 -82.552734 23.725891 4287931011
-972.85712 -83.3041 23.718287 4284506199
-972.0332 -84.502739 23.629166 4284702558
-1032.0829 -81.747086 23.534637 4285960584
-974.35577 -81.21936 24.112305 4284505941
-1030.9993 -79.435883 24.945129 4288131485
-975.72852 -78.479073 24.066841 4284505948
-977.61426 -75.067459 24.271149 4284310104
-976.92694 -76.583427 24.480263 4284243540
-978.44745 -73.787033 23.660486 4284638044
-980.26849 -70.383339 23.803915 4284438873
-979.56329 -71.784157 24.000793 4284833372
-981.34613 -68.730095 23.765564 4284572766
-982.8761 -66.226677 23.521563 4284965988
-982.04047 -67.154762 24.195206 4284899928
-985.16705 -62.55719 24.582886 4284703068
-984.23083 -63.669392 23.497536 4284834654
-986.10309 -60.966965 23.862602 4284374878
-984.85309 -62.450226 23.11554 4284638049
-987.70367 -58.299206 23.878092 4284441439
-987.10645 -58.846436 23.727509 4284244062
-1014.6267 -116.32558 26.372864 4283392085
-1015.5308 -114.36638 26.50824 4284378181
-1017.7331 -111.42584 25.486572 4282667076
-1017.3336 -111.31375 26.482361 4282869332
-1020.7697 -105.39274 26.311157 4283390524
-1022.4371 -102.73477 25.535645 4283128402
-1023.6003 -100.76078 26.126139 4282601033
-1022.3739 -102.08893 26.802734 4283198556
-1025.3279 -97.631958 25.528992 4282999884
-1024.5652 -98.762093 26.207174 4283521872
-1026.4846 -95.672714 25.750458 4282996301
-1027.8655 -93.227402 25.383179 4283587668
-1027.1011 -94.263321 26.091003 4283523422
-967.85663 -92.562424 27.166504 4283849560
-967.24786 -93.98185 26.10553 4284634962
-1028.7549 -90.80188 26.709879 4284246105
-968.85773 -91.115318 26.129589 4284374103
-1030.3313 -87.883469 26.583252 4283656808
-970.28876 -88.648651 26.303785 4284440669
-969.65344 -89.628639 25.8703 4284505951
-1031.234 -86.74324 26.078325 4283786593
-971.69293 -86.002907 26.505285 4284571224
-1032.5846 -84.019531 25.39089 4285368696
-972.99487 -83.605164 26.427828 4284702808
-972.01483 -84.820557 25.549622 4284440155
-1031.9672 -81.826736 25.105591 4287410853
-975.16022 -80.225845 27.002747 4284309851
-974.09283 -81.846794 26.31481 4284374868
-1031.5657 -79.918076 26.523193 4286088567
-975.65509 -79.057419 26.271235 4284505692
-977.75616 -75.365753 26.257334 4284374609
-977.13879 -76.620995 26.305506 4284439895
-978.72681 -73.933861 26.429953 4284703838
-980.37512 -70.760406 26.388638 4284833110
-979.64734 -72.20285 25.91037 4284834393
-982.58862 -67.512054 26.950317 4284572485
-981.77673 -68.748093 26.304829 4284441175
-983.1684 -66.127396 26.173174 4284506463
-985.29156 -62.96114 26.494659 4284768603
-984.23517 -64.228416 26.08252 4284900446
-986.25653 -61.267567 25.863966 4284505946
-987.81683 -58.416794 26.400909 4284440664
-987.21191 -59.651012 25.883312 4284308825
-991.11975 -57.187401 26.25882 4284506206
-988.59668 -56.849365 25.63855 4284309077
-1013.8596 -116.89462 28.627848 4283654232
-1015.5125 -113.48256 28.493017 4283918435
-1016.6833 -111.571 28.71936 4283654998
-1017.5812 -109.79977 28.83429 4284898124
-1020.2431 -105.39966 28.362345 4283393370
-1021.2004 -103.44505 28.51997 4283918418
-1022.6469 -101.05208 28.35968 4284113483
-1021.8571 -101.87389 29.658203 4284376399
-1023.8923 -98.798622 27.708536 4284050525
-1024.5972 -97.109299 28.997192 4284116832
-967.10266 -95.151947 28.610474 4284372564
-1026.9526 -93.277512 28.6474 4284378464
-967.99164 -92.97477 28.588047 4283979857
-967.38446 -94.195137 28.608414 4284504148
-1027.6597 -91.933929 28.865601 4284246362
-1026.8993 -92.36647 29.77063 4284842088
-969.15417 -91.400177 28.592535 4284505434
-1029.2291 -88.900558 28.412567 4284314730
-970.66309 -88.570282 28.7327 4284374615
-969.98578 -89.720093 28.742105 4284571484
-1030.5104 -86.173698 28.965685 4284578671
-1029.7853 -87.208252 29.662903 4284841849
-972.50537 -85.122871 28.564667 4284834398
-971.78546 -86.441986 28.562286 4284571225
-973.25861 -83.677193 28.722174 4284637017
-1031.4167 -81.43187 28.077957 4287870369
-1028.7749 -80.794304 29.122711 4286818448
-975.18878 -80.680946 28.920218 4284178000
-974.34967 -81.936775 28.753845 4284505939
-1031.0649 -79.381927 28.87439 4286882716
-1029.4835 -79.78746 29.18602 4287607461
-976.16876 -78.671028 28.663807 4284439642
-977.8512 -75.858322 28.806116 4284768601
-977.18024 -76.965195 27.987915 4284113248
-979.09332 -73.912262 29.024199 4284572254
-980.40015 -71.407249 28.798773 4284834136
-982.5921 -68.223877 29.070251 4284769114
-981.75653 -69.319351 28.820379 4284310107
-983.48785 -66.136749 28.905067 4284834138
-985.41138 -63.298595 28.69455 4284506205
-984.34631 -64.338593 29.17799 4284769632
-987.86511 -60.343521 29.714081 4284703067
-986.55792 -61.323364 29.124603 4284702295
-990.85547 -58.0826 28.974237 4284705636
-988.40234 -58.530277 29.216824 4284571737
-990.01678 -57.305096 28.99205 4284111952
-988.78375 -57.121174 28.127428 4284505939
-1013.3907 -115.8059 31.492798 4285103466
-1012.4403 -115.31531 32.399353 4284647543
-1015.1794 -112.98998 30.38916 4284710514
-1013.6638 -113.15274 31.972496 4284909686
-1012.1368 -113.95877 32.289722 4285172084
-1015.6823 -110.97813 31.515356 4285039986
-1014.1586 -111.43654 31.759432 4285040756
-1016.1115 -108.99415 32.168724 4285237361
-1014.5381 -109.43369 32.223953 4284975218
-1017.8149 -106.2107 32.285095 4285040755
-1016.9658 -106.29871 32.375717 4285041009
-1020.1768 -103.50877 31.183472 4284646254
-1018.4584 -104.02197 32.258457 4284975218
-1017.1611 -104.8046 32.329407 4285368180
-1020.6171 -100.83963 32.214161 4285171316
-1019.2676 -101.52366 32.316185 4284974964
-1023.1536 -98.030266 31.628531 4284777585
-1021.342 -98.794487 32.272499 4284975221
-1019.6876 -99.73291 32.311401 4285039989
-1023.4712 -96.076691 31.562038 4285040238
-1021.8607 -96.63446 32.228294 4284909170
-968.44019 -96.224632 32.461792 4283453264
-967.43994 -95.326599 30.586609 4284176207
-1025.502 -93.463936 31.254797 4284843117
-1024.0009 -94.121895 31.175558 4284909685
-970.58466 -92.515625 32.454895 4284243030
-968.23645 -93.402008 31.79464 4284111442
-967.45709 -94.664246 30.416605 4284438359
-1025.8845 -91.106056 31.744036 4285040246
-1024.6503 -91.799492 31.948303 4285105527
-970.98169 -90.873055 32.318886 4284571739
-969.48065 -91.271286 31.595003 4284571482
-1028.1737 -88.321045 31.020901 4284974965
-1026.7444 -88.929565 31.131826 4284974964
-972.71991 -89.255852 32.097809 4285098590
-971.24561 -89.081383 31.688078 4284506200
-1030.3011 -85.295715 30.322998 4284843124
-1028.7742 -86.28302 30.627384 4285106292
-1027.3196 -87.255142 30.490417 4285171576
-972.90869 -85.230469 32.090073 4284441184
-972.04901 -86.566154 31.10977 4284505949
-1030.625 -83.629021 30.987978 4285303925
-1028.9807 -83.754814 31.378996 4285237621
-973.73615 -83.695847 31.559563 4284571226
-1030.5652 -81.764206 31.52515 4286817678
-1029.1406 -81.350441 31.087286 4286291334
-975.86639 -80.664803 31.413679 4284243540
-974.67896 -81.905807 31.450644 4284636759
-1028.7784 -79.716629 31.935242 4287607713
-977.95007 -78.352638 32.413597 4284309592
-976.81836 -78.718056 31.53631 4284374614
-980.65564 -75.770233 32.046558 4284904041
-978.84564 -76.305084 31.667328 4284637529
-977.39648 -77.227554 31.038498 4284637535
-981.00104 -73.607193 32.007103 4284769375
-979.61475 -73.922356 31.370531 4284375385
-1018.6599 -71.803207 32.33905 4287673245
-983.09967 -71.078377 31.840984 4285164639
-981.53729 -71.2724 31.682287 4284768858
-1012.9118 -68.504974 32.456726 4287739553
-985.34271 -67.729424 32.219707 4285233515
-983.6604 -68.623375 31.531614 4284572770
-982.09961 -69.548836 30.747925 4284441181
-985.72241 -66.273346 32.169529 4284903015
-984.17969 -66.531532 31.673441 4284637530
-987.98022 -62.961651 31.775112 4285036395
-986.34113 -63.724926 31.733793 4284506456
-984.64484 -64.505814 31.288675 4284572508
-988.58911 -61.146805 30.669203 4284771173
-987.06482 -61.813046 30.501501 4284637012
-990.61084 -58.660515 31.250271 4285102189
-989.20007 -59.040771 30.605974 4284637790
-1010.7242 -118.54479 33.408306 4285040241
-1012.8102 -115.48552 33.110802 4285236596
-1011.355 -116.26224 33.331505 4285105777
-1009.9451 -116.80092 33.593094 4284974965
-1012.9678 -113.72971 32.896919 4285172595
-1011.5125 -114.73667 32.951538 4285171827
-1015.8499 -107.98398 32.916718 4284975732
-1014.9906 -108.13728 32.896484 4285172336
-1018.1331 -105.64859 32.948833 4285041010
-1016.6514 -106.41712 32.925659 4285106288
-1018.75 -103.55697 32.930332 4285040755
-1016.8982 -104.93411 32.880268 4285237363
-1019.5229 -101.6685 32.836777 4284909683
-970.15918 -95.691864 33.071182 4283589483
-968.99609 -95.808121 32.977428 4283847246
-970.61206 -93.394196 33.369892 4284771427
-969.10492 -93.935905 32.970181 4284307796
-972.68756 -90.015747 34.111694 4285629052
-971.03015 -91.470795 32.860939 4284507231
-969.66705 -91.932327 32.843296 4284374103
-973.14325 -88.469933 33.798828 4285231974
-971.8468 -88.431625 33.220943 4284637782
-973.7998 -86.150681 33.662228 4284704093
-972.24402 -86.90744 32.909065 4284309593
-975.91327 -83.587402 33.764595 4284771939
-974.39978 -83.997543 33.088905 4284440408
-1030.3401 -80.470459 32.636749 4287608225
-1029.7361 -80.446526 32.701508 4288066970
-977.87671 -80.610161 33.724079 4285101159
-976.37549 -81.350784 33.342445 4284375128
-974.94812 -81.954033 33.149303 4284440156
-1030.1614 -79.669342 33.01506 4287870625
-1029.2263 -79.329536 33.640991 4287607714
-978.8064 -78.583847 33.471836 4284903009
-976.85706 -79.532249 32.786205 4284440657
-1025.5034 -75.816917 34.495159 4288132770
-1024.4011 -75.588921 34.879333 4287673250
-980.94946 -76.062767 33.719044 4285893242
-979.26434 -77.225166 32.990986 4284836452
-982.69495 -72.814575 32.922607 4285368187
-981.68097 -73.791946 32.848644 4285233006
-1018.7194 -71.941246 34.211731 4287542430
-1016.9838 -71.588615 34.832794 4287738783
-983.66394 -71.245094 33.468102 4285761655
-981.34955 -72.097816 32.779175 4284440411
-1012.8591 -69.08947 34.037445 4287673765
-1012.3264 -69.086494 34.268482 4287476897
-985.33722 -68.162949 33.079418 4286090871
-984.56378 -69.247849 33.691479 4285432183
-1007.7691 -65.593262 34.214539 4287673771
-1006.7287 -65.094643 34.851643 4287672483
-986.4494 -65.976028 33.164803 4285498997
-984.82153 -65.414337 32.753948 4284441184
-987.97015 -63.80349 33.970932 4285565819
-986.42944 -64.769592 32.869793 4284838260
-984.94958 -64.849411 32.762085 4284179816
-989.47772 -60.93787 33.239136 4285894267
-990.80597 -59.01474 33.923912 4285762167
-989.84045 -59.966003 33.375671 4285760889
-970.49017 -95.660492 35.836956 4285694057
-970.51746 -94.568153 36.022827 4285628267
-972.80762 -90.563759 35.933525 4285959809
-973.50665 -88.671021 35.602581 4285827196
-974.52814 -86.835739 35.752625 4285891701
-976.13104 -84.435722 36.465706 4285893755
-977.992 -81.586166 36.228455 4286156672
-1027.8267 -78.867538 36.110558 4287147417
-1026.6731 -78.035248 36.429596 4287410330
-979.53137 -78.706535 36.012653 4285631613
-1025.8295 -76.698372 36.455864 4287738527
-1024.3273 -76.090508 36.212688 4287607710
-981.19116 -76.164597 36.279644 4285959807
-1020.0747 -73.362869 36.701061 4287869854
-1018.66 -73.110435 36.704361 4287607195
-1017.0483 -72.907623 37.012024 4287212179
-1018.5465 -72.170784 35.835976 4287804321
-1016.4338 -71.817299 36.534451 4287607710
-1012.6929 -70.20636 35.912006 4287672477
-1012.3132 -70.214081 36.668365 4287474318
-984.38684 -70.278099 37.122711 4285959294
-1013.3256 -69.631332 36.322258 4287673760
-1011.9615 -69.327911 35.81842 4287804321
-1009.156 -68.427818 37.121265 4287344020
-985.47437 -68.394279 36.150787 4285960320
-984.64966 -69.72213 35.977947 4285893502
-1007.797 -67.031128 37.100071 4287804063
-1006.4568 -66.030945 36.394245 4287607200
-986.74316 -66.711754 36.088051 4285960067
-1005.671 -64.88382 35.758301 4287607457
-987.93762 -64.250748 37.183899 4285566588
-993.13757 -60.074493 37.364685 4285830526
-989.39874 -61.179184 36.21759 4286026108
-993.16449 -58.952286 36.100723 4287606427
-992.48779 -59.270271 37.014465 4287077766
-960.0191 -133.1709 39.503418 4284046154
-959.31714 -134.13887 39.618061 4283914326
-960.84863 -131.59053 39.155315 4284178016
-963.40027 -126.88655 39.2052 4284440146
-965.34906 -123.61972 38.918415 4284177232
-964.81799 -124.51167 39.346222 4284308825
-966.77319 -120.9968 39.127644 4283848270
-968.62097 -117.74314 38.859596 4283651135
-967.48187 -119.79544 39.481323 4283651404
-969.26288 -116.44945 39.472839 4283257417
-970.77869 -114.09242 38.978935 4283387456
-972.81183 -110.27218 39.438873 4282599990
-972.09491 -111.89046 39.018879 4282796606
-974.23682 -107.61024 39.36908 4282270510
-974.79492 -106.93888 39.548851 4281745200
-975.85413 -102.97648 38.725487 4281412893
-975.98547 -101.80739 38.742504 4282403387
-972.73798 -91.358261 38.558105 4285828477
-975.48804 -85.442017 38.820526 4286091131
-974.77222 -87.224869 37.85968 4285828992
-977.94775 -81.712463 39.608276 4285959806
-1025.9716 -78.479637 38.473419 4285962106
-1023.8329 -77.829048 39.249695 4285172853
-980.06573 -78.184402 39.981873 4285566338
-979.38458 -79.288574 38.189331 4285566332
-1025.3252 -77.105721 37.592773 4287606681
-1023.6816 -77.034035 39.014725 4286159234
-1021.4678 -75.876373 39.495262 4285634168
-981.55859 -75.611618 39.701466 4285828734
-1020.6598 -74.33828 39.51778 4287343256
-1018.7786 -73.95961 38.3386 4286488711
-1016.15 -73.233704 39.098949 4285436025
-1014.4767 -72.559563 39.740845 4285172343
-981.86353 -74.581055 39.239014 4285959038
-1015.5876 -71.723412 38.43914 4287147158
-1013.9209 -71.229492 38.393875 4286620041
-1011.4064 -70.439125 39.066376 4285633143
-984.44879 -70.803902 39.097794 4285959549
-1013.6387 -69.913254 37.533752 4287674277
-1010.6992 -69.26078 38.410217 4287079823
-1009.06 -68.909767 39.011295 4285699709
-1006.4729 -67.641136 39.203979 4285043070
-984.72491 -69.76236 37.890381 4285959033
-1008.4053 -67.254654 38.025085 4288329377
-1006.0195 -67.033928 38.761364 4285962630
-1004.1077 -66.464844 39.621178 4284911476
-1001.6019 -65.044487 39.512512 4285042035
-986.79236 -67.114929 39.613586 4285895306
-1000.8163 -64.358696 38.998814 4285502078
-999.14966 -63.446445 39.22411 4285370746
-997.43152 -62.567276 39.245789 4285042294
-987.9021 -64.79953 38.127274 4285697915
-998.54688 -61.663025 39.273727 4287541660
-996.1792 -60.719112 39.241505 4286883729
-994.03851 -60.446384 39.147011 4285699450
-992.23743 -60.041618 39.204468 4285435505
-997.5011 -59.475052 39.486633 4287543198
-996.10944 -59.775135 38.564083 4287738781
-993.95245 -59.797321 37.959621 4287014284
-992.04187 -59.6875 38.718731 4285960315
-958.00012 -136.60657 41.593391 4283913811
-960.20624 -132.9778 41.454575 4284242259
-959.328 -134.23347 41.378532 4284045143
-961.22174 -131.13162 41.321487 4284309084
-962.03876 -129.6169 41.124756 4284176980
-963.6394 -126.79299 41.209179 4284243279
-965.5592 -123.42229 40.976967 4284045653
-964.87506 -124.60059 41.365429 4284308311
-966.79926 -121.13113 41.266788 4283848787
-968.45355 -118.44193 41.46711 4283782215
-967.47656 -119.92409 40.934448 4284044877
-970.30493 -115.14109 41.400818 4283715391
-969.52863 -116.40471 41.278603 4283126092
-971.36823 -113.28994 41.236736 4283190849
-972.96606 -110.25905 41.570602 4282730556
-972.07336 -112.14275 41.389832 4283321661
-973.62286 -109.00918 40.973541 4282795055
-974.73438 -107.28066 41.477798 4282007855
-976.22601 -103.3624 41.402153 4280757537
-976.97498 -101.50434 41.31139 4282931787
-985.27155 -97.944931 42.490601 4285631613
-984.9339 -97.93721 42.479187 4285501052
-976.11017 -99.669838 41.758514 4284976244
-973.56036 -97.871727 42.25008 4285500796
-975.32129 -97.229263 42.385132 4284844406
-972.79541 -92.757965 41.535248 4286222721
-971.17938 -94.167137 41.989643 4285828474
-986.82227 -90.213699 42.384705 4284910195
-983.98108 -90.344299 42.293995 4284975219
-982.0437 -90.428223 42.289413 4284910192
-973.0683 -91.391083 41.206039 4285828991
-973.89435 -89.013893 41.659374 4285762941
-975.79681 -85.584312 41.523457 4285828475
-1025.9526 -82.657974 42.309387 4285105527
-1020.6755 -83.895203 42.173615 4284974706
-976.84137 -84.001312 42.456848 4285828482
-977.83447 -82.13942 41.082672 4285632125
-1025.8242 -79.299179 40.9809 4284844662
-1023.8791 -78.308441 40.913017 4285041523
-1022.4073 -77.777473 41.281921 4285369715
-980.04004 -78.607246 41.014912 4285567104
-979.68921 -79.165787 40.884308 4285632380
-1021.0217 -76.380424 41.072186 4285041779
-1019.2242 -75.319656 41.888084 4284910196
-981.65247 -75.939461 41.158325 4285894524
-1018.603 -74.600662 41.438919 4285041786
-1016.1164 -73.918381 41.310074 4285041270
-1014.2218 -72.896011 40.833549 4285041528
-982.86279 -73.982323 41.130287 4285828735
-1013.2323 -71.858131 41.142647 4285172596
-1011.2174 -71.010086 41.348858 4285041267
-1009.4692 -70.33551 41.744423 4285173107
-984.62939 -70.789978 41.450806 4286090878
-1010.0865 -69.857452 40.609741 4285566325
-1008.3597 -69.271339 41.270546 4285041780
-1006.4232 -68.263168 41.655388 4285041268
-986.28247 -68.341766 42.195534 4286157183
-1006.2551 -67.390335 40.436432 4284910456
-1003.8519 -66.703751 41.347759 4285107571
-1001.5446 -65.483353 41.591114 4285172597
-987.80945 -65.428734 41.46936 4286026617
-987.09521 -66.497696 41.94762 4286157445
-1000.5101 -64.72213 40.790424 4285172601
-998.83234 -63.881218 41.343254 4285107316
-997.24738 -62.770481 41.204388 4285238378
-988.32971 -64.025307 42.433258 4285764228
-997.9491 -61.824776 40.088886 4286620304
-996.34259 -61.594757 40.608967 4285699453
-993.79523 -61.013107 41.619492 4285041269
-991.62012 -60.294731 41.594345 4285501301
-989.50409 -62.054024 42.055687 4286091903
-997.8761 -59.707664 42.229748 4287542434
-997.2243 -59.519939 40.965069 4287345315
-990.96912 -59.868446 42.441742 4285960316
-957.56781 -137.72328 43.611286 4283847764
-957.22095 -138.45741 44.576721 4284109143
-958.42126 -136.07724 43.771717 4283716693
-960.35315 -133.16132 44.008087 4284242000
-959.5755 -134.06169 43.805634 4284307541
-961.5116 -131.28355 44.132458 4284441178
-963.17535 -128.49745 44.322025 4284440921
-962.24841 -129.66217 44.208572 4284571740
-965.43414 -125.41624 44.284409 4284970088
-964.20795 -126.37131 43.920815 4284243030
-965.71057 -123.73501 43.74963 4283914837
-964.86908 -124.94254 43.262836 4284176983
-968.07642 -120.42751 44.624542 4284376669
-966.99451 -121.45679 43.997902 4284111702
-997.57031 -118.37292 43.676208 4285239154
-968.63916 -119.05377 43.923611 4284047442
-1006.0674 -115.34388 44.423054 4284974962
-1004.5581 -115.24365 44.215988 4284909686
-970.53583 -115.7435 44.3242 4283850327
-969.58289 -116.60728 43.529335 4283519561
-1005.2351 -114.52479 44.598907 4284844148
-1004.4982 -114.60795 44.66386 4285041015
-1000.6846 -112.70525 44.525234 4285697403
-999.30292 -112.62312 44.144562 4285895287
-971.6236 -113.80703 43.797253 4283717451
-1008.481 -110.36094 44.54726 4284844400
-1006.3284 -110.45759 44.461853 4285237876
-1003.6904 -110.73929 44.473972 4285172855
-1001.2271 -111.10599 44.566845 4285436027
-998.82825 -111.14286 44.643116 4285897857
-996.98254 -110.67174 44.749817 4286096262
-973.2821 -110.97629 43.750443 4283192138
-972.28241 -112.28751 43.301983 4283256380
-1010.5026 -108.55667 43.919655 4285106295
-1008.7479 -108.88815 44.044029 4285106804
-1006.3015 -109.16842 44.289703 4285172853
-1003.7994 -109.25131 44.471012 4285173879
-1001.6422 -109.57304 44.598888 4285436284
-998.94379 -109.36947 44.836712 4285765759
-996.61761 -108.5209 44.866901 4285832836
-994.23517 -108.45837 44.779266 4286227596
-975.19714 -107.74918 44.803589 4282339404
-974.22357 -108.77457 43.942459 4282796607
-1011.3321 -107.09244 44.646851 4285500281
-1009.5729 -107.23031 44.607323 4285434483
-1006.2083 -105.45467 44.887337 4285172857
-1003.5288 -105.61816 44.847748 4285369717
-1001.2155 -106.3852 44.829868 4285370488
-999.66101 -107.24733 44.93869 4285765247
-996.9422 -106.77397 44.836132 4285766529
-988.90961 -105.37181 44.952408 4286424461
-975.67303 -106.05639 44.454788 4281743921
-974.88452 -107.31861 43.392181 4281942582
-1013.2497 -103.39801 44.632042 4285106548
-1010.5552 -103.8617 44.602337 4285106803
-1009.1085 -103.73376 44.644978 4285172595
-1006.4554 -104.03161 44.564255 4285173366
-1003.3661 -104.79903 44.885166 4285501557
-1001.9213 -104.85862 44.789845 4285567608
-995.55493 -103.28407 44.52681 4285699964
-993.1745 -103.26913 44.34737 4285700479
-991.42145 -103.4886 44.676456 4285963140
-988.80072 -103.6281 44.867657 4285963908
-986.2851 -103.14481 44.766968 4286095238
-984.09296 -103.03302 44.255447 4286095237
-978.05054 -102.94381 44.148594 4280364569
-976.38727 -103.99754 43.81741 4280823328
-1015.4743 -100.3018 44.103138 4285040500
-1014.1683 -101.71167 44.671169 4285237617
-1010.7784 -102.36551 44.544189 4285565559
-1008.1854 -100.3152 44.710144 4284975729
-1005.9036 -100.66895 44.742874 4285238899
-1003.8225 -100.67491 44.71278 4285173364
-1001.2921 -100.62157 44.779602 4285239412
-998.6767 -100.92603 44.690643 4285436280
-996.13171 -100.95511 44.609795 4285436533
-993.60431 -100.96272 44.473793 4285502589
-992.10535 -100.83312 44.554821 4285568379
-988.12054 -101.02444 44.604908 4285831552
-986.06293 -101.3664 44.472839 4285766015
-983.70605 -101.39184 44.072212 4285634942
-981.62134 -100.82932 44.117947 4285371002
-978.24487 -101.28761 43.906662 4283788126
-1015.8864 -98.562531 43.998932 4285106035
-1013.8001 -98.638458 44.422081 4285040757
-1011.1942 -98.525398 44.422977 4285040755
-1008.7131 -98.6856 44.24419 4285107061
-1006.2071 -98.781502 44.227802 4285172341
-1003.7399 -98.83934 44.346333 4285172851
-1001.2339 -98.754425 44.552174 4285238903
-998.69495 -98.692192 44.558907 4285304694
-996.23914 -98.796494 44.342957 4285239415
-993.69122 -98.995079 43.914837 4285304953
-991.2417 -98.960388 44.104076 4285502073
-988.55945 -98.964172 43.726582 4285371256
-986.24396 -99.131805 43.626446 4285502329
-983.67426 -98.867897 43.700489 4285370489
-981.1604 -98.828018 43.644337 4285304438
-978.80682 -98.647858 43.853508 4285238645
-976.50177 -98.592476 43.407997 4285041527
-974.28088 -97.934402 43.388947 4285369978
-1017.9835 -95.780624 43.348656 4284974964
-1016.1669 -96.287247 43.815964 4285040756
-1013.6982 -96.274368 44.124172 4285040498
-1011.3035 -96.310158 44.082417 4285172084
-1008.7572 -96.268517 44.044094 4285041012
-1006.2209 -96.190926 44.101776 4285172339
-1003.7467 -96.251068 44.014168 4285303668
-1001.2091 -96.29081 44.020473 4285107314
-998.86224 -96.31337 43.847439 4285304182
-996.14612 -96.133125 44.547794 4285304182
-993.98401 -96.06601 44.198856 4285238903
-990.78174 -95.867653 44.519276 4285435770
-988.95459 -96.023056 44.645569 4285304437
-986.19855 -96.275391 44.522743 4285304185
-983.18268 -96.486137 44.242065 4285107320
-981.13757 -96.395226 44.324924 4285107062
-978.77002 -96.656868 44.265392 4285107317
-976.29492 -97.302673 43.286407 4285172599
-973.62537 -97.202408 43.306263 4285238392
-971.89691 -96.519417 43.896381 4285436023
-1018.5471 -93.575279 44.006546 4284974958
-1016.2272 -93.720772 43.888725 4284974962
-1013.7271 -93.72216 43.974529 4285172082
-1011.2559 -93.741936 43.978897 4285106294
-1008.7758 -93.821716 43.952396 4285106289
-1006.2888 -93.833748 43.895229 4285237874
-1003.7731 -93.781586 43.835262 4285368947
-1001.2393 -93.75901 44.018265 4285041523
-998.76367 -93.815086 44.276245 4285172598
-996.2959 -93.674683 44.637894 4285172594
-993.77112 -93.725487 44.281841 4285172596
-991.26788 -93.763924 44.679264 4285238134
-988.70288 -93.777824 44.723064 4285041527
-986.3681 -93.550056 44.513733 4285107064
-983.8573 -93.516449 44.634773 4285107059
-981.13403 -93.481674 44.574741 4285172340
-978.6098 -93.018379 44.573765 4285106290
-976.37463 -92.916832 44.25782 4285041011
-973.88177 -92.947166 43.784252 4284910458
-971.85437 -93.619736 44.633553 4285895295
-1020.654 -90.877464 43.528923 4284908656
-1018.7064 -91.338303 43.618328 4284909424
-1016.2847 -91.279396 43.790867 4285040498
-1013.7601 -91.290001 44.083729 4285040753
-1011.316 -91.303291 44.192295 4285040756
-1008.8369 -91.447273 44.644653 4285106544
-1005.8712 -91.52076 44.551426 4285041011
-1003.9113 -91.333473 44.650993 4285172082
-1001.5212 -91.144226 44.635872 4285172339
-998.48773 -91.099007 44.778233 4285106804
-996.2074 -91.256546 44.75861 4284909939
-993.77863 -91.195679 44.60503 4285106804
-991.22131 -91.275345 44.67905 4285041009
-988.76984 -91.260681 44.590771 4284975475
-986.24817 -91.194695 44.307152 4284975730
-983.72351 -91.358963 43.80674 4284975475
-981.21112 -91.228279 43.990635 4285041266
-978.71521 -91.244675 44.00798 4285040753
-976.26526 -91.237495 43.810295 4285041267
-974.19269 -91.374794 43.31778 4285501051
-972.23083 -92.194061 44.150055 4286091137
-1021.2891 -88.714157 44.19693 4285105776
-1018.5103 -88.47818 44.645672 4285040753
-1016.1267 -88.42379 44.395306 4285040498
-1013.7762 -88.618439 44.540363 4284975218
-1011.2665 -88.643509 44.484024 4285171570
-1008.6802 -88.463516 43.856655 4285040755
-1006.2103 -88.668732 43.994576 4285106800
-1004.2297 -88.814117 44.200123 4285106547
-1001.1893 -88.681183 44.131428 4285041012
-998.72217 -88.771584 43.993687 4285041009
-996.26355 -88.756607 44.353516 4284975217
-993.7301 -88.707314 44.450928 4285040756
-991.19891 -88.811363 44.377228 4284975221
-988.68646 -88.696541 44.445816 4285040754
-986.00708 -88.610825 44.358265 4284975475
-983.43304 -88.857224 44.691456 4285040753
-981.61554 -88.604149 44.579571 4284909682
-978.82123 -89.329498 44.698299 4284974964
-976.21771 -89.056587 44.751213 4285172596
-974.28308 -89.396362 43.737186 4285763708
-1023.2007 -85.980331 43.416538 4285040757
-1021.2618 -86.223801 43.565338 4284975217
-1018.7877 -86.367264 43.449852 4284909426
-1016.3047 -86.226135 43.04705 4285171825
-1013.7778 -86.33448 43.559044 4284909682
-1011.272 -86.291496 43.323643 4285041012
-1008.6962 -86.231331 43.461582 4285106290
-1006.1562 -86.172768 43.854759 4284974964
-1003.7529 -86.298279 44.049385 4284974961
-1001.2576 -86.304214 43.985294 4285040756
-998.74115 -86.21302 44.008751 4285040498
-996.23462 -86.158165 43.919762 4284909427
-993.77338 -86.278381 43.855095 4285040499
-991.31677 -86.314964 44.107071 4285040497
-988.58282 -86.5868 44.077549 4284909426
-986.2171 -86.44136 43.899841 4284975218
-983.94342 -86.478172 44.678448 4284974963
-981.81464 -86.282585 44.611916 4285106036
-979.45215 -86.242188 44.902912 4284844657
-976.02002 -85.811996 44.44223 4285960318
-1025.3357 -83.182869 42.894684 4285040757
-1023.7798 -83.67717 43.151051 4285106034
-1021.3658 -83.769783 42.97826 4285040752
-1018.7094 -83.815781 43.322144 4285040755
-1016.2379 -83.684311 43.608231 4285106293
-1013.6619 -83.72419 44.049412 4285040754
-1011.2583 -83.765038 43.898113 4285172081
-1008.7358 -83.762978 43.916973 4285171829
-1006.2027 -83.692383 43.914436 4285237621
-1003.8398 -83.897163 43.886536 4285041011
-1001.3401 -83.905472 44.109325 4285041009
-998.66388 -83.783752 44.226303 4285040755
-996.15808 -84.037888 44.228363 4285040498
-993.96332 -83.976334 44.544231 4284974707
-991.7489 -84.399521 44.383614 4285171575
-988.13904 -82.793365 44.664749 4285237363
-986.77295 -83.423798 44.728546 4285172085
-983.0769 -82.797081 44.947174 4284909937
-981.51398 -84.702301 44.841309 4284974967
-977.78418 -82.899254 44.416077 4286026108
-976.64807 -84.732269 42.994797 4286025598
-1025.6492 -81.01825 43.598301 4285172340
-1023.8024 -81.131798 43.856415 4285106547
-1021.2436 -81.208008 43.957874 4285040756
-1018.8083 -81.233978 43.981564 4285041010
-1016.231 -81.258186 44.018135 4284975475
-1013.7087 -81.207291 44.04768 4285171828
-1011.2746 -81.256866 43.792919 4285040755
-1008.7668 -81.379448 44.058266 4284975218
-1006.2521 -81.241478 44.175114 4285040754
-1003.9111 -81.291107 44.616241 4285106291
-1000.8468 -80.870766 44.862896 4284909423
-998.68494 -81.123856 44.78569 4285040755
-996.26044 -80.941559 44.79826 4285105778
-993.74854 -80.984459 44.695236 4285040498
-991.2594 -80.892517 44.645042 4285040241
-988.5907 -81.128624 44.568256 4284975218
-986.60901 -81.113914 44.637718 4284974962
-983.5556 -81.607956 44.720295 4285040753
-980.78107 -80.373238 44.896484 4284975733
-978.13434 -81.917809 43.644768 4285829247
-1025.5919 -79.691238 42.876453 4285041271
-1023.6031 -79.19371 43.38987 4285106547
-1021.2443 -78.726067 43.586086 4285041523
-1018.7365 -78.718773 43.726192 4285106802
-1016.2385 -78.805519 44.065144 4284975731
-1013.7291 -78.782616 44.278332 4284975473
-1011.2252 -78.607918 44.442509 4285106547
-1008.6725 -78.685783 44.50312 4285106038
-1006.3174 -78.680725 44.275742 4285106290
-1003.7308 -78.609192 44.46315 4284844403
-1001.2335 -78.785378 44.525646 4285106034
-998.75476 -78.743683 44.150238 4284974963
-996.24249 -78.815643 44.498089 4284974960
-993.79895 -78.809021 44.359589 4285040497
-991.23224 -78.738655 44.456589 4284909425
-988.86407 -78.848656 44.50317 4284975216
-986.26282 -78.347351 44.652496 4285106035
-983.69232 -78.150047 44.565231 4285106292
-981.08905 -78.59967 44.372047 4285501046
-979.83582 -79.54734 44.144115 4286157690
-1020.5971 -76.963226 43.479782 4285041527
-1018.6118 -76.30439 43.840019 4285237877
-1016.1953 -76.273117 44.183922 4285172341
-1013.7972 -76.30809 44.049713 4284975476
-1011.2667 -76.241203 43.995861 4285172084
-1008.7776 -76.336769 44.170078 4284975219
-1006.2139 -76.18116 44.139843 4285040755
-1003.7711 -76.35302 44.074467 4284975218
-1001.3041 -76.298599 44.31229 4285040497
-998.776 -76.238228 44.243294 4284909425
-996.21625 -76.252136 44.527939 4284974961
-993.7381 -75.997864 44.522274 4285040752
-991.17639 -76.311974 44.405483 4285040754
-988.81854 -76.20237 44.38221 4284974963
-986.29108 -76.228737 44.266109 4285040754
-983.76282 -76.296806 44.13253 4285172340
-981.88269 -76.520279 43.70023 4285829243
-1021.2186 -73.093826 43.173859 4287804579
-1017.8114 -74.733383 42.854782 4284910964
-1016.1879 -74.399513 43.627705 4285041781
-1013.7445 -73.670685 44.127686 4285041524
-1011.2462 -73.61779 44.252499 4284975732
-1008.7823 -73.639259 44.425961 4285041012
-1006.2172 -73.560753 44.195156 4285040753
-1003.764 -73.815323 44.186077 4285040754
-1001.2604 -73.72245 44.241547 4284909684
-998.73633 -73.772789 44.148312 4284974961
-996.29395 -73.709991 44.088047 4285040754
-993.75568 -73.742935 44.036732 4285040756
-991.24945 -73.806892 44.038879 4284975217
-988.71796 -73.729515 44.158951 4285041009
-986.20343 -73.81488 43.974606 4284975217
-983.9837 -73.883362 43.769642 4285369718
-982.24933 -74.778214 42.861492 4286156411
-1012.7214 -72.003441 42.991726 4285303664
-1011.2405 -71.694931 43.371422 4285041268
-1008.7009 -71.345192 43.455219 4285107061
-1006.1683 -71.175827 43.348946 4285107059
-1003.8127 -71.22023 43.299446 4285041010
-1001.2849 -71.262741 43.556904 4285106292
-998.79742 -71.31192 43.464836 4284843890
-996.19946 -71.240829 43.878555 4285040755
-993.66644 -71.227592 43.965694 4285040498
-991.28058 -71.17778 43.622761 4285040754
-988.75824 -71.167007 43.602623 4285106288
-986.28784 -71.262856 43.490391 4285106805
-984.38953 -71.796814 43.421505 4285894782
-1007.8702 -69.83078 43.084839 4285369203
-1006.2449 -69.070381 43.311623 4285238132
-1003.675 -68.651131 43.760563 4285041267
-1001.1733 -68.717819 43.859497 4285106547
-998.73865 -68.751289 43.631271 4284975477
-996.25378 -68.740135 43.697704 4284909683
-993.78186 -68.81189 43.421055 4285106291
-991.23029 -68.768898 43.216694 4284909938
-988.71393 -68.705666 43.185474 4285041013
-986.513 -68.994041 42.956463 4285763452
-1003.5643 -67.082016 43.427681 4285042035
-1001.1232 -66.476746 43.508907 4285106804
-998.76855 -66.332054 43.207035 4285106803
-996.2016 -66.236595 43.510166 4285041011
-993.77039 -66.271713 43.902004 4285106292
-991.2774 -66.231361 43.84214 4285106801
-988.74005 -66.184227 43.888985 4285238389
-987.2569 -66.875008 42.924526 4286157953
-998.26514 -64.238091 42.998291 4284975985
-996.24493 -63.644588 43.593704 4285041267
-993.72644 -63.784794 43.635647 4285106804
-991.20428 -63.792686 43.461571 4285041013
-989.22095 -63.829128 43.420242 4285698169
-998.70929 -60.277874 43.128277 4287607969
-995.6261 -62.216026 42.945984 4284844659
-993.56195 -61.873379 43.0103 4285172596
-991.30017 -61.370056 43.245232 4285369719
-989.89587 -61.684681 42.977722 4286157694
-998.42401 -59.499096 44.117065 4287870882
-958.29297 -138.66771 45.496422 4283518544
-957.2074 -139.25856 45.318592 4283781461
-960.01825 -135.194 47.144653 4284973433
-958.97174 -136.27972 45.838184 4283980638
-960.64862 -133.85977 45.686817 4284837990
-959.55042 -134.62546 45.464745 4284307804
-962.82983 -130.26065 46.109833 4285169527
-962.07202 -131.36063 46.041988 4285036137
-963.75891 -128.77901 45.686546 4285300592
-965.46838 -125.78452 46.108887 4285367671
-964.73383 -126.52054 45.73103 4284707946
-966.50159 -123.21681 45.739594 4284575586
-968.12 -120.83991 45.575729 4285036648
-967.16711 -121.90731 45.21199 4284573792
-970.21594 -117.64549 46.969727 4285105526
-969.57532 -118.23815 45.606544 4284971884
-997.55511 -116.57666 45.363586 4287541390
-970.68085 -116.43498 45.741642 4284840812
-969.73468 -117.00014 45.303955 4284243540
-1007.7681 -113.18791 45.341076 4285105522
-1006.3007 -113.55423 45.46059 4285040753
-1003.7562 -113.42963 45.399536 4285041780
-1001.9522 -112.88715 45.321526 4285303928
-971.64209 -114.8635 45.263306 4284643691
-1008.459 -111.35774 45.260475 4285041015
-1006.2321 -111.72768 45.439838 4285041012
-1003.9067 -111.81405 45.354713 4285303668
-1002.0607 -112.10445 45.211494 4285369461
-998.34033 -112.05634 45.449005 4286489996
-996.08362 -110.8248 45.676876 4286754451
-973.54279 -111.41599 46.061871 4284313950
-1010.2812 -107.52966 45.167847 4285041012
-1005.8818 -107.97073 45.119446 4285042295
-1003.8162 -108.11755 45.24329 4285238902
-1001.1652 -108.51566 45.244404 4285502075
-998.69141 -108.35895 45.384319 4285700480
-996.1709 -108.83589 45.285534 4286030214
-993.87793 -108.29937 45.545418 4286162315
-991.90723 -107.9353 46.373344 4286294416
-975.34283 -108.14264 46.076126 4283589461
-974.83008 -108.67999 45.45702 4283390797
-1010.9683 -105.99561 45.300156 4285172340
-1008.6567 -106.10888 45.24152 4285106804
-1006.2659 -106.35682 45.294266 4285172599
-1003.8459 -106.52899 45.251751 4285304438
-1001.2266 -105.95914 45.243183 4285436540
-998.78888 -106.2235 45.468113 4285765502
-996.22498 -106.22231 45.459084 4285766271
-993.71057 -106.23594 45.949165 4286095493
-991.20624 -106.22327 46.03204 4286227336
-989.05859 -105.8823 46.120251 4286359182
-987.38751 -105.02075 45.511841 4286621071
-976.53064 -105.86241 46.074261 4282142015
-1011.726 -103.79016 45.151764 4285040758
-1008.3347 -103.97246 45.068321 4285238132
-1006.1873 -103.50085 45.239048 4285041781
-1003.8294 -103.54168 45.598148 4285369719
-1001.1834 -103.49171 45.905041 4285305466
-998.68793 -103.72971 45.626999 4285568123
-996.25513 -103.81808 45.430847 4285568893
-994.13641 -103.96843 45.5504 4285700733
-991.13654 -103.92743 45.342766 4285963654
-988.81989 -103.79297 45.248505 4286029958
-986.37268 -104.12395 45.648952 4286293133
-983.44482 -103.19844 46.163227 4286293131
-982.37457 -102.52238 46.739563 4286226308
-977.89941 -103.54208 46.145065 4281220403
-977.1214 -104.60261 45.624218 4281746994
-1013.5507 -100.91063 45.523418 4285041012
-1011.2401 -101.15723 45.452644 4284909683
-1008.7889 -101.28065 45.545696 4285107060
-1006.4647 -101.42609 45.354626 4285172597
-1003.6781 -101.86021 45.51812 4285304439
-1001.235 -101.83955 45.501125 4285304950
-998.85687 -101.85902 45.234364 4285502073
-996.50427 -101.74227 45.170799 4285568121
-994.47601 -101.70614 45.206936 4285502074
-990.97528 -101.28447 45.143288 4285830780
-989.08319 -101.20262 45.789356 4285897087
-986.47058 -101.50581 45.281979 4286028417
-984.1322 -100.73066 45.229324 4285765760
-981.05249 -100.96746 45.448895 4285502331
-979.41229 -100.70284 45.452145 4285238392
-1013.376 -99.703773 45.135281 4285040757
-1011.2365 -99.635612 45.048508 4285236854
-1009.6323 -99.73896 45.123566 4285237107
-997.65039 -99.74176 45.073425 4285239164
-996.38812 -98.262344 45.014362 4285239160
-994.65063 -97.75853 45.487915 4284978037
-989.4021 -98.93364 45.625458 4285371514
-986.5426 -98.735718 45.206833 4285437051
-983.81915 -99.844872 45.1534 4285633150
-981.46338 -99.782921 45.056335 4285304950
-979.61414 -99.627113 45.040344 4285238387
-996.54187 -96.581795 45.277111 4285303672
-993.51001 -96.285988 45.411266 4285239158
-991.68292 -96.397926 45.468231 4285304440
-988.51343 -96.456345 45.276699 4285369974
-986.41095 -96.12587 45.305656 4285304440
-984.30035 -95.890175 45.462036 4285238135
-981.52344 -95.959473 45.732281 4285172599
-978.55939 -95.611351 46.058697 4284975733
-976.16394 -95.616631 46.467842 4285171828
-973.94952 -95.741737 46.174683 4285172339
-971.73956 -95.556885 46.226288 4285435769
-999.50879 -92.864098 45.105438 4284975471
-996.09076 -94.625908 45.111206 4285303914
-992.71472 -94.878418 45.001404 4285434751
-987.9884 -94.893066 45.201538 4285698161
-985.8266 -94.31958 45.135647 4285172855
-983.66553 -94.086494 45.172951 4285238130
-981.32477 -93.875877 45.559212 4285172082
-978.79828 -94.090202 45.80302 4285237619
-976.20154 -94.043114 46.040775 4285172341
-973.70734 -93.959442 46.034275 4285237878
-971.98242 -94.23394 45.976841 4285632122
-1010.0275 -90.273529 45.299744 4285565295
-1008.21 -90.709038 45.261143 4285171825
-1006.7625 -90.957802 45.278534 4285041012
-1003.4292 -90.858521 45.118881 4285041007
-1000.8074 -91.310059 45.056286 4284975476
-999.70996 -91.516319 45.141705 4285238129
-986.54761 -91.993851 45.092422 4284910190
-982.66113 -92.385513 45.139282 4284844400
-982.32458 -92.37706 45.127686 4285107059
-971.88623 -92.244232 45.273682 4286091641
-1020.2117 -88.37249 45.202759 4285040752
-1018.8959 -88.525841 45.086464 4284974965
-1016.991 -89.255249 45.018677 4285040759
-1010.044 -89.598686 45.303059 4285499503
-1008.9647 -89.640053 45.263714 4285040755
-1006.4997 -89.849037 45.170635 4285172086
-1002.9832 -88.735962 45.184238 4285237620
-1002.2977 -89.404594 45.035015 4285172596
-989.33807 -88.18367 45.194611 4284975728
-986.802 -88.641495 45.053146 4284975471
-983.88135 -88.31572 45.24194 4285171827
-980.76666 -88.338959 45.255146 4285106547
-978.7215 -88.27327 45.294533 4284975217
-976.27496 -88.081459 45.366737 4285107318
-1003.2508 -87.29406 45.023682 4284909426
-989.02277 -85.871811 45.059307 4284909170
-986.01544 -85.061058 45.102428 4284975729
-983.76123 -86.173668 45.081879 4284909170
-980.53076 -86.345627 45.080269 4284909681
-978.72424 -86.291901 45.592312 4284844403
-976.50342 -86.605392 45.488018 4285435511
-1000.7675 -82.698814 45.31358 4285106292
-999.52643 -82.831787 45.345684 4284516721
-996.35059 -82.861351 45.463116 4284975220
-993.20428 -83.19075 45.248741 4284909430
-991.1438 -83.444458 45.352486 4285106292
-988.79407 -83.797943 45.435295 4285040497
-986.2002 -83.686386 45.444824 4284975218
-983.77039 -83.884674 45.310295 4284975475
-981.16064 -83.606873 45.326973 4284909683
-978.81555 -83.84053 45.722866 4285106804
-977.27783 -84.085556 45.434235 4285895039
-1003.0132 -80.978607 45.064972 4285172080
-1001.3765 -81.575508 45.20945 4285040498
-999.60718 -81.878029 45.32856 4284778869
-996.26489 -81.841019 45.387051 4285171570
-993.70837 -81.859787 45.298309 4284909426
-991.1911 -82.100075 45.300579 4285040246
-989.16479 -82.146355 45.204792 4284909425
-985.95282 -81.587189 45.097713 4284975222
-984.00549 -81.164787 45.380806 4285040751
-981.23535 -81.281136 45.696236 4284975477
-979.25848 -81.363449 45.585911 4285566842
-1008.1483 -79.505234 45.013123 4285040753
-1003.0436 -79.801849 45.041687 4285041267
-993.60107 -77.515175 45.033527 4285040755
-988.51392 -78.551826 45.221565 4284974705
-986.11145 -79.006462 45.166504 4284974960
-983.66406 -79.242188 45.435093 4284909425
-981.87225 -79.356003 45.777569 4285171828
-979.61072 -79.813049 45.291321 4286026884
-1007.042 -75.012482 45.078979 4285172593
-993.67981 -76.497063 45.135056 4284975216
-988.57452 -77.240685 45.021339 4284974960
-1013.7082 -73.847847 45.10144 4285172851
-1007.0637 -74.171547 45.062378 4285172078
-960.02155 -135.3774 48.348919 4285432951
-959.66229 -136.09555 47.617065 4284972399
-960.9093 -134.25935 48.595013 4285564274
-962.82971 -130.59952 48.47052 4285630583
-962.36395 -131.91042 48.370056 4285565049
-963.96979 -129.12149 48.379192 4285369464
-965.45978 -126.19659 48.949596 4285696631
-964.93451 -126.9926 47.543701 4285500278
-966.84705 -123.49729 48.603184 4285106291
-968.40955 -120.76503 48.432259 4285433462
-970.28931 -117.73399 48.815109 4285368183
-969.33862 -118.87387 48.607956 4285302389
-996.08215 -115.35699 49.8703 4285896316
-970.55762 -117.18906 48.254925 4284909684
-995.33295 -111.18124 48.635212 4288200873
-994.88721 -110.25061 49.282196 4287938219
-973.77325 -111.60672 48.771008 4284578149
-994.92236 -109.96324 48.424011 4286952093
-991.4624 -107.97984 47.753845 4286362781
-975.30817 -108.60872 48.342529 4283919202
-990.68713 -107.31592 48.429626 4287016598
-988.99927 -106.5597 48.323833 4287149211
-976.91266 -106.0189 48.588707 4282472004
-986.30774 -104.63753 48.989838 4286557594
-983.28363 -103.48943 48.751865 4287478430
-982.34021 -102.58545 48.566193 4286491285
-977.95795 -103.78906 47.646606 4281420343
-981.02509 -101.55698 48.478607 4285568123
-960.37158 -135.37741 50.636383 4285892467
-961.01398 -134.40108 51.311306 4285630326
-962.98993 -131.25717 51.22818 4285500279
-964.2207 -128.9061 50.92627 4285500535
-965.62061 -126.51772 51.311142 4285696891
-967.72534 -122.65378 52.13678 4285630844
-967.17834 -123.52218 51.730156 4285500021
-968.51886 -121.09381 51.536232 4285696122
-967.39874 -122.43907 50.647217 4285827444
-970.37799 -118.05204 51.168964 4285171064
-969.14307 -119.69324 50.593506 4285564790
-997.04388 -115.00711 51.402832 4287211143
-971.05908 -116.48795 51.973602 4285237109
-996.27545 -114.26782 51.546185 4287278485
-995.81342 -111.74817 50.574646 4287937964
-973.87488 -112.11248 51.278435 4285103470
-994.15289 -109.81541 51.598408 4288266928
-975.3974 -108.68895 51.147888 4284051045
-990.8692 -106.94867 51.860596 4286954405
-976.90222 -106.56462 51.382683 4283393105
-982.75488 -103.18392 50.742188 4287807919
-982.03949 -102.82989 50.985832 4287676070
-978.24573 -103.87935 51.098145 4282142526
-980.97931 -101.80886 50.881733 4286882180
-959.67303 -137.51164 54.276123 4285564278
-960.72504 -135.27623 53.336224 4285499765
-959.6825 -137.04816 53.908386 4285301111
-961.41589 -134.29047 53.041054 4285630838
-963.27057 -131.4196 53.429218 4285631609
-964.21429 -129.41267 54.14505 4285631865
-965.81561 -126.55688 53.739994 4285631099
-967.70215 -123.48911 53.112385 4285499769
-966.82825 -124.08022 53.576408 4285696378
-968.88477 -121.06221 53.854164 4285631095
-970.74353 -118.20405 53.703655 4285303161
-969.47607 -119.26869 54.042862 4285564789
-971.55292 -116.39153 53.572216 4285631095
-996.60675 -113.1161 53.434368 4288002983
-974.31372 -112.52649 54.422791 4285696124
-996.36792 -112.11764 53.671471 4287872682
-975.29236 -110.21081 54.149429 4285433974
-974.35168 -111.38798 53.443821 4285169775
-993.2262 -109.71867 54.572601 4288070315
-975.52411 -109.04656 53.439434 4284512107
-977.50171 -105.28519 54.197327 4283194459
-977.40009 -106.59554 54.312988 4284972906
-981.25586 -102.61261 53.134399 4287673507
-978.33917 -103.88745 54.077209 4283127879
-980.93042 -102.26296 53.162334 4287540891
-960.74213 -135.27081 56.18042 4285630848
-963.1424 -132.56795 57.052368 4285762942
-961.77405 -133.90321 56.029041 4285696376
-963.26697 -131.50391 56.188751 4285697146
-965.59528 -127.60867 56.052185 4285762682
-964.80164 -128.73962 56.395489 4285631099
-965.82983 -127.10907 55.944355 4285500029
-968.07996 -123.37459 56.098991 4285959036
-968.99213 -121.35925 55.847439 4285696891
-971.04706 -118.10018 56.786957 4285631096
-969.79883 -119.43356 55.634136 4285630588
-972.55927 -115.16786 57.262024 4285631091
-971.68445 -116.41511 56.231873 4285631608
-972.57587 -114.72177 56.537933 4285500019
-975.34851 -110.36446 56.4198 4285500026
-974.73267 -111.45702 56.379417 4285433718
-975.70734 -109.25088 56.634174 4285236341
-977.79065 -105.58743 57.049427 4284842617
-983.80078 -104.51109 57.083801 4288135081
-978.33875 -104.18014 56.069336 4283788391
-960.74518 -135.5359 57.833008 4285762431
-962.87195 -133.35915 59.395733 4285631868
-962.17871 -133.79083 59.143417 4285697145
-963.68414 -131.08699 58.98991 4285828223
-965.39563 -128.27667 58.955215 4285828222
-964.79083 -129.48677 58.971951 4285696892
-966.13452 -126.54073 58.439331 4285762430
-968.36591 -123.09122 58.665894 4285893755
-966.33563 -124.67825 58.117859 4285828483
-969.28461 -121.43754 58.750324 4285697147
-971.32574 -118.49803 58.8144 4285762686
-972.54517 -115.27357 58.856915 4285565560
-971.90302 -116.67883 58.567104 4285762427
-974.60822 -112.68195 58.115803 4286155642
-992.89178 -110.35193 59.519207 4287542433
-975.64941 -110.56361 58.940956 4285697153
-974.96173 -111.71816 58.420696 4285631358
-992.58826 -109.66181 59.156372 4288069287
-976.03516 -108.76543 58.195023 4285564790
-983.79449 -105.47715 59.508163 4286687118
-977.85913 -106.36054 58.773281 4285697403
-976.08856 -106.85951 57.773621 4284117351
-985.96436 -104.01152 59.034569 4288266414
-984.15936 -104.74352 58.774139 4288200871
-978.11554 -104.78198 59.15448 4285433465
-961.63019 -135.39377 61.557472 4285565562
-963.59131 -132.81358 61.585194 4285697660
-962.15619 -134.42781 60.921616 4285893496
-964.18518 -131.09283 60.879715 4285827712
-965.79816 -128.39568 60.895161 4285697146
-964.88153 -129.77454 61.466125 4285959549
-967.81128 -125.06789 61.983643 4285893247
-966.45636 -126.38058 61.183018 4285894014
-968.52271 -123.70862 60.842632 4285894267
-966.82855 -124.76231 61.295837 4285893761
-970.07782 -120.54317 61.335461 4285828220
-969.51459 -121.56488 61.250824 4285894266
-970.66132 -119.29983 61.162525 4285762941
-972.64374 -115.57504 61.338531 4285893503
-971.9812 -117.30718 61.044025 4285828725
-973.76208 -113.56069 61.277081 4285697145
-992.5094 -110.63568 60.949951 4286224767
-991.63647 -110.45843 61.097878 4285502077
-975.56213 -111.22032 61.134678 4285762684
-974.92273 -112.19115 61.163376 4285959037
-990.65009 -109.67979 61.975731 4285502070
-988.81244 -108.70515 61.831043 4285436281
-986.86066 -107.60999 62.17942 4285239926
-976.49847 -108.5571 61.643475 4285697405
-985.92236 -106.2842 61.631706 4286686607
-983.86328 -106.00555 61.017353 4285830523
-982.06641 -105.30634 62.029072 4285369460
-978.12939 -106.26819 61.473087 4285960058
-985.85498 -104.50024 61.426659 4288135338
-982.73315 -104.91707 60.288391 4286161026
-981.45526 -104.72691 61.360352 4285370232
-978.42761 -104.75935 60.622437 4285762940
-973.01538 -138.16817 64.598312 4284843128
-960.37915 -138.5502 64.741241 4285630848
-972.93292 -137.14494 64.463928 4284974448
-961.01678 -136.2036 64.870621 4285827705
-963.18567 -133.37509 64.046738 4285763194
-962.2326 -134.61159 63.750347 4285828217
-975.39935 -130.83505 64.695129 4284842861
-965.77887 -130.60832 64.482178 4285631869
-964.46771 -131.05399 64.044991 4285893756
-983.99744 -129.75046 64.71228 4285367154
-965.90344 -129.16954 63.908756 4285763197
-980.67139 -125.45255 64.784752 4284777327
-978.43213 -125.50733 64.593643 4284908656
-976.40753 -125.97472 64.266579 4284908398
-973.76825 -125.32792 64.802719 4284974705
-972.24194 -125.45287 64.761597 4285040241
-968.13269 -125.17146 64.707428 4286090874
-966.76917 -126.52603 63.121056 4285828476
-982.86938 -123.5919 64.351006 4284778096
-981.40295 -124.06653 64.09343 4284843120
-978.51056 -124.10703 64.107399 4285039982
-976.17389 -123.96495 64.334526 4284974450
-973.92725 -123.99623 64.641533 4285040243
-972.17065 -123.97769 64.669807 4285040242
-968.90277 -123.39272 63.890171 4285894524
-967.31879 -124.7977 64.937683 4285893760
-985.99139 -121.63244 64.795158 4284975219
-981.24658 -121.07125 64.955956 4285105518
-978.79938 -120.18342 64.876221 4284777324
-975.60547 -120.16914 64.767128 4285105523
