# .PCD v0.7 - Point Cloud Data file format
VERSION 0.7
FIELDS x y z rgba
SIZE 4 4 4 4
TYPE F F F U
COUNT 1 1 1 1
WIDTH 964
HEIGHT 1
VIEWPOINT 0 0 0 1 0 0 0
POINTS 964
DATA ascii
-981.01434 -170.53975 26.09318 4283454531
-981.41113 -168.47203 26.126547 4283846476
-981.81976 -165.91579 26.19635 4283781453
-982.19171 -164.25896 26.98111 4283716428
-982.61359 -161.78069 26.243753 4283977289
-1035.0925 -159.22221 27.499573 4283788139
-983.01544 -158.92525 27.022461 4283454291
-983.53418 -156.37157 25.878983 4283846215
-984.2403 -151.83478 26.47995 4283649606
-1036.9955 -148.72281 26.333679 4284245853
-985.03162 -147.90167 26.376236 4283255873
-984.65741 -149.61003 25.732809 4283583823
-985.44336 -145.20633 26.439697 4283650117
-985.75983 -143.10014 26.231537 4283255621
-986.06598 -141.20184 26.250793 4283650116
-986.41016 -138.81645 26.408609 4283452741
-986.70465 -136.96768 25.641495 4283519559
-987.21893 -133.54997 26.993469 4283716683
-987.63837 -131.37799 26.157532 4284175948
-987.48468 -132.20956 26.902222 4284044871
-990.93616 -128.08885 25.894739 4284506203
-988.57935 -128.46683 26.513031 4283914062
-1031.8809 -178.65788 28.688232 4283917912
-1032.1489 -177.0992 28.685974 4284442451
-1032.5049 -173.10475 29.823029 4284051304
-981.55914 -173.93604 29.202118 4283716685
-980.94836 -171.55318 28.33415 4283847244
-981.34149 -169.10503 29.056498 4283716165
-981.74286 -166.90485 28.962194 4283585100
-1034.1414 -163.73271 29.441284 4283133035
-982.14679 -164.47871 29.044046 4283322190
-1034.5256 -161.64378 29.587036 4284376914
-982.54803 -162.23073 29.024557 4284108356
-1035.038 -158.5663 28.400513 4283788909
-982.96423 -159.23445 29.206894 4283780947
-983.50073 -156.67126 28.557648 4283781452
-1035.797 -154.10565 28.903229 4283591007
-1036.1901 -151.83398 28.991943 4284442450
-984.34686 -151.53374 28.315662 4283584327
-984.95581 -148.44925 29.220093 4283649616
-1037.0607 -146.9032 28.229248 4284705619
-985.37402 -145.53891 29.186951 4283518796
-1037.4248 -143.02245 29.162659 4284182381
-985.78186 -142.96451 29.231628 4283189824
-986.20026 -140.82614 28.330246 4283322436
-986.61115 -138.00851 28.521271 4283255362
-986.99969 -135.92528 28.857405 4283585348
-987.24542 -133.85008 27.965677 4283847500
-987.81256 -131.01831 28.806803 4284109906
-990.99219 -128.66576 28.966764 4284506966
-989.10754 -128.312 28.726135 4283914069
-1031.1813 -181.49477 30.963135 4284375889
-1031.6023 -178.03004 31.064636 4283788640
-981.25958 -170.25726 31.925049 4283519055
-981.5199 -168.63515 31.1896 4283781199
-982.00275 -166.03117 31.523956 4283846989
-982.50916 -162.55267 30.599609 4283912786
-982.32776 -163.78337 31.261438 4283585358
-1034.4576 -160.81166 30.718811 4284704850
-982.8844 -160.5925 31.492889 4283649862
-983.18781 -158.45436 31.277317 4283716431
-983.70428 -155.63757 31.079773 4283452750
-1035.692 -153.07436 30.547119 4283853931
-984.12933 -152.6693 30.754883 4283781956
-1035.2679 -150.17088 32.454651 4284908660
-1033.5419 -150.64214 32.405609 4284909168
-984.448 -150.99892 31.197113 4283650115
-1035.2769 -149.82796 32.447937 4284908664
-984.91064 -148.58609 31.138092 4283518541
-985.33051 -145.82188 30.825439 4283781959
-985.74475 -143.29187 30.509247 4283387202
-1036.0272 -140.83336 32.431065 4285436279
-1034.7952 -141.38992 32.434387 4285369978
-986.13538 -141.21576 30.729767 4283256636
-1036.0265 -139.08124 32.053768 4287673503
-1034.5128 -139.33528 32.286114 4287081365
-986.56476 -137.98544 30.533813 4283648074
-1035.9978 -136.38625 31.795248 4288330923
-986.9187 -137.03999 31.084839 4283190580
-987.35327 -133.38081 31.122702 4283978571
-987.91113 -131.13316 31.659048 4283781966
-990.81329 -129.20134 31.636772 4284309590
-989.0694 -128.9088 31.499533 4283979858
-1028.764 -183.04309 33.623863 4285040757
-1027.1407 -182.81538 34.085876 4285106804
-1028.817 -181.34514 34.7085 4285040756
-1027.3715 -181.41049 34.702961 4285107059
-1030.5077 -177.8532 34.275166 4285237363
-1028.7709 -178.57513 34.600887 4285040758
-1027.4983 -179.75325 34.937012 4285303932
-1030.5261 -176.2467 33.905869 4285106548
-1028.8711 -176.39059 33.963764 4285172084
-1030.5618 -173.72864 34.641045 4284975476
-1029.1842 -173.76501 34.276825 4285041011
-983.53375 -172.90424 34.650806 4283255876
-982.17395 -172.74687 34.512146 4283584071
-1030.9017 -171.29411 34.195713 4285040756
-1029.4268 -171.30025 33.997738 4285040756
-983.664 -171.63954 34.919388 4283452997
-981.85919 -171.43027 34.853477 4283649608
-1031.1111 -168.78078 33.996071 4284975220
-1029.6035 -168.9453 33.965752 4285041265
-983.08435 -168.29633 34.839172 4283321675
-981.86157 -168.5097 34.641605 4283649871
-1032.7113 -165.2928 34.123993 4285237109
-1031.2942 -166.18015 34.083256 4285040756
-985.07971 -165.76581 34.738754 4283587928
-983.60956 -166.19473 34.828369 4283584842
-982.19312 -166.42604 34.46254 4283519056
-1032.8019 -163.63676 34.026497 4285106283
-1031.2881 -163.77681 33.912636 4285171827
-985.09955 -164.89207 34.839111 4283455322
-982.4093 -164.0636 33.753349 4283650125
-1033.0155 -161.00626 33.753826 4285171571
-1031.5449 -161.40605 33.807888 4284975218
-985.87 -160.54201 34.84399 4283981392
-983.92499 -160.87373 34.275898 4283716174
-1033.1281 -158.68842 33.404476 4284975222
-1031.6326 -158.82872 33.692669 4285106547
-985.90247 -158.7348 34.614647 4283717709
-984.09143 -158.76971 34.354279 4283912779
-1033.3392 -156.25642 33.646824 4285040497
-1031.8977 -156.26971 33.755711 4285106291
-986.3493 -156.68446 34.876606 4283652433
-983.67853 -156.46645 34.06715 4283781972
-1033.609 -153.65691 34.005798 4285040498
-1031.9532 -153.58707 34.301613 4285040756
-987.8056 -152.93478 34.352142 4284051037
-986.24261 -153.54845 34.351089 4283716681
-984.48956 -153.95798 34.558048 4283519055
-1035.2208 -150.93039 32.819687 4285171315
-1033.8319 -151.45714 33.029419 4284974962
-1032.2532 -151.70914 33.024788 4285172083
-987.70282 -151.47722 33.865314 4283851349
-986.1723 -151.44199 34.121342 4283518788
-984.77301 -151.25925 34.342224 4283584329
-1035.2584 -148.59956 33.060875 4285041011
-1033.9194 -148.69846 33.245819 4285106037
-985.16449 -148.99152 34.68808 4283650630
-984.80139 -149.84102 34.690613 4284175688
-1035.5167 -146.06242 33.771397 4285106289
-1034.0947 -146.21368 33.549923 4285106290
-988.16473 -146.16502 34.198605 4283652429
-986.50989 -146.35205 34.377655 4283452996
-1035.5897 -143.63696 33.184479 4285172082
-1034.1613 -143.83206 33.277729 4285172340
-988.51965 -143.63921 34.511272 4283652946
-986.3634 -143.64894 34.642132 4283256131
-1035.7823 -141.38675 32.987156 4285303670
-1034.3823 -141.15532 32.9972 4285042036
-988.65735 -141.27708 33.903694 4283586381
-987.03943 -141.4398 34.104111 4283649865
-1035.4965 -138.52791 33.138905 4287673760
-1034.2794 -137.94501 33.519737 4288594864
-990.22498 -138.02151 34.634094 4284314463
-988.79828 -138.65248 34.159264 4283717452
-987.16266 -138.98001 34.02573 4283716168
-1035.4692 -136.1091 34.228821 4288529068
-990.2702 -136.32162 34.550198 4284181857
-988.7403 -136.31392 34.280865 4283584845
-987.18011 -136.31804 33.645611 4283519043
-1035.2756 -134.85466 34.171345 4288462767
-1034.2577 -134.72571 34.071304 4288529324
-990.31305 -134.60834 34.566467 4283917666
-988.80206 -133.91536 34.415081 4283715916
-987.27509 -134.55115 33.140156 4283650629
-990.8609 -130.82036 34.047447 4284048472
-988.89038 -131.32495 33.496407 4283781449
-990.9278 -129.75955 32.940998 4284113504
-989.06628 -129.5038 32.912388 4283979857
-1028.7717 -180.33847 35.145363 4285106553
-1028.9733 -179.52994 35.158073 4285106041
-983.6167 -170.62793 35.168415 4283519567
-982.03943 -170.92342 35.030773 4283453770
-985.25842 -168.27513 36.092018 4283984738
-984.0014 -168.90038 35.32346 4283389006
-982.13263 -169.51022 35.009228 4283584069
-985.30121 -166.2151 35.417614 4283786841
-984.70544 -166.54459 35.316139 4283586125
-985.64825 -163.58493 35.753269 4284114006
-983.77026 -163.64442 35.722996 4283650382
-985.65369 -161.54648 35.530998 4284046675
-983.82001 -161.98906 35.517647 4283650892
-986.7796 -158.67717 35.43721 4284115811
-986.22858 -155.86137 35.47818 4283716933
-984.47589 -156.08386 35.400993 4283650127
-987.77069 -153.42787 35.241089 4284182111
-986.28052 -154.56406 35.444283 4283782730
-984.4939 -154.6875 35.329315 4283388754
-988.17938 -150.49435 35.51004 4284509021
-986.02826 -150.29291 35.29063 4283256389
-987.9303 -148.74899 35.684715 4283785303
-986.31445 -148.65331 35.330189 4283321669
-988.10602 -146.94302 35.21397 4283718990
-987.02295 -147.16142 35.075562 4283321410
-988.45081 -143.85971 35.096703 4283718740
-987.07318 -143.86835 35.262283 4283453001
-1035.0314 -136.10062 35.446716 4288529327
-1034.2186 -135.92931 35.546253 4288529071
-1033.0457 -134.24373 36.637341 4288529328
-1032.0579 -133.586 37.105347 4288594611
-990.52539 -133.2267 35.347027 4283852638
-988.70148 -133.41325 35.158092 4283650638
-1008.0179 -131.99538 37.377991 4288661689
-1007.3325 -131.94479 37.481201 4288530354
-990.96692 -131.71667 35.335659 4283984222
-988.30908 -132.24695 35.137512 4283651146
-993.09796 -129.51782 37.049194 4288463541
-992.19794 -129.42635 36.844238 4287735952
-1015.9111 -182.88637 39.684566 4288793524
-1014.8033 -183.02147 39.853653 4288662968
-1016.1169 -181.81844 39.403263 4288727987
-1014.748 -181.97401 39.28413 4288728760
-986.42053 -163.62881 38.0495 4284380005
-987.24048 -158.36281 37.812927 4284314723
-987.60699 -155.25923 39.887268 4284445792
-988.00739 -152.89378 39.850952 4284183400
-988.4057 -151.21744 39.224827 4284380260
-988.79346 -149.62013 38.940613 4284708704
-989.62238 -143.1152 39.504089 4284445283
-990.43329 -138.66451 38.820068 4285232741
-1033.0231 -135.54462 39.506165 4288529580
-1029.4205 -135.54993 39.507587 4288397226
-1026.7615 -135.43497 39.434315 4288266927
-1033.0999 -134.97566 38.680786 4288726194
-1031.1749 -133.97449 39.16732 4288463789
-1028.7172 -134.26978 38.873978 4288595122
-1026.2003 -134.3531 38.917389 4288594866
-1023.7896 -134.23807 39.00975 4288529584
-1021.813 -134.15767 39.22998 4288463791
-1018.2334 -133.35025 39.964905 4288661424
-1017.0566 -133.18355 39.797028 4288530101
-1007.8711 -132.09975 38.974365 4288660147
-1006.2029 -131.89592 38.919373 4288595121
-1004.6862 -131.58171 39.732697 4288529582
-993.04596 -129.58434 38.689991 4288463019
-992.15881 -129.63866 38.753956 4287407244
-989.06183 -203.10738 41.832172 4282795075
-989.86133 -198.62381 41.563416 4282269753
-1016.306 -183.48372 40.350716 4288858803
-1014.1846 -183.25662 41.236797 4288662712
-1015.383 -180.80835 40.59259 4288596913
-1014.4469 -182.23427 40.476624 4289056953
-986.72498 -160.95433 42.283203 4284839783
-987.12927 -158.67174 41.966503 4284577638
-987.54547 -156.16286 41.418976 4284773728
-987.96289 -153.3101 41.176163 4284576871
-1032.5906 -135.18845 40.828674 4288595118
-1031.1517 -135.53548 40.915924 4288397483
-1028.3346 -135.63667 40.406368 4287871139
-1026.1483 -135.65541 40.760799 4287015570
-1023.8067 -135.38057 40.961571 4286620815
-1022.1297 -135.24612 41.021729 4286422924
-1032.6322 -134.56093 40.48053 4288726448
-1031.4398 -134.49812 40.393879 4288529839
-1026.0178 -134.9702 40.015045 4288529589
-1023.6276 -134.6561 40.245056 4288266671
-1020.7911 -134.22688 41.105545 4287739553
-1018.7469 -133.99103 41.130726 4287608224
-1016.3491 -133.56213 41.405388 4287804833
-1013.8126 -132.92482 41.940418 4288199583
-1011.1631 -132.66698 42.189823 4287804320
-1008.2417 -132.73393 41.787251 4286684543
-1011.1194 -132.22224 41.934326 4288857523
-1008.4727 -132.22241 41.40789 4288264353
-1006.3013 -132.12448 41.451241 4287475610
-1003.623 -131.67261 41.351841 4287541400
-1001.2975 -131.26439 41.489887 4287541402
-998.80414 -130.85301 41.270126 4287607967
-996.40277 -130.64532 41.451889 4287080847
-994.28552 -130.29922 41.87606 4286948236
-991.93878 -130.04176 41.252869 4286090097
-992.96167 -129.72008 41.328629 4287673243
-992.28485 -129.70308 41.305195 4286883476
-988.59589 -206.54106 43.260223 4282795576
-989.02838 -203.48631 42.672974 4282271558
-989.37622 -201.19456 44.378174 4282861371
-989.79224 -198.64647 43.916016 4282663999
-990.20325 -195.76344 43.920929 4282204983
-1016.5013 -185.38167 44.706768 4286225545
-1014.6917 -185.18726 44.840351 4285962883
-993.14014 -185.45216 44.857197 4281085476
-992.46228 -185.60985 44.784302 4281414163
-1016.0186 -184.22087 44.03801 4288661681
-1014.3227 -184.14165 43.981846 4288200875
-993.51373 -183.92471 44.945831 4280691257
-992.18591 -184.03146 44.082848 4281151243
-992.59473 -181.35286 43.990948 4281149701
-1016.3945 -179.71936 44.087811 4288463783
-1014.961 -178.85292 44.835632 4288530608
-985.49377 -168.142 43.698303 4284052844
-986.28595 -163.87964 43.371349 4284381038
-1023.0055 -161.27621 44.947693 4285171831
-986.67963 -161.79289 43.267548 4284906091
-987.06708 -159.39799 43.730816 4285168747
-987.47876 -156.88887 43.334198 4284841326
-999.40802 -150.9962 44.990032 4285040243
-988.31763 -151.12361 42.698669 4284578413
-1028.5592 -148.53143 44.851955 4284975221
-1027.038 -149.03954 44.832275 4285106292
-1028.9387 -147.39572 44.862778 4284909426
-993.30444 -143.16405 44.809479 4285172080
-1030.5275 -140.39722 44.766876 4284975478
-1028.8436 -140.7515 44.636204 4285368437
-1026.0704 -140.73674 44.614113 4285107061
-1023.5075 -140.92828 44.549057 4285238132
-1022.3491 -140.80508 44.530067 4285237617
-1018.712 -141.44267 44.926559 4285237874
-999.65741 -141.07442 44.965332 4284778604
-996.26807 -141.66339 44.861877 4284909427
-993.30341 -142.18582 44.728668 4285040246
-1030.9015 -138.74945 44.681606 4285172598
-1028.8876 -139.22406 44.574589 4285172338
-1026.4711 -139.48051 44.540405 4285238134
-1024.5762 -139.68245 44.554871 4285238647
-1018.9863 -138.86642 44.935822 4285434225
-1031.0212 -136.3609 44.03833 4286093443
-1028.8085 -136.1559 44.686691 4285436285
-1026.0027 -135.80342 44.395947 4285238903
-1023.5517 -135.49837 44.060654 4285238899
-1021.7206 -135.1898 43.934502 4285435509
-1019.7888 -135.07748 44.405945 4284844919
-1020.5845 -134.97716 43.450348 4285239163
-1018.6974 -134.62097 44.076389 4285370488
-1016.257 -134.27023 43.937893 4285239412
-1013.7924 -133.59697 43.522266 4285633919
-1011.322 -133.3511 43.886002 4285436799
-1008.7376 -133.30656 44.462578 4285370229
-1006.8029 -132.65457 44.793488 4284910958
-1008.7856 -132.31895 43.309235 4286686097
-1006.1124 -132.34024 43.638107 4285305722
-1003.7081 -132.01761 44.118824 4285042552
-1001.2637 -131.64734 44.048317 4285631866
-998.79663 -131.14317 43.711746 4285633402
-996.26337 -130.66579 43.862343 4285436282
-993.58685 -130.18779 43.768261 4285763960
-992.20343 -130.05917 43.725849 4285434738
-990.95508 -208.81137 46.983803 4283655255
-989.05817 -208.77739 46.589256 4282796611
-991.11664 -206.14037 46.977684 4283588692
-989.34387 -206.31047 46.538036 4282861114
-992.6286 -203.56018 46.578979 4283787609
-991.27625 -203.84314 46.417355 4283325777
-989.59009 -203.94467 45.739277 4282598971
-990.84857 -201.23619 46.376408 4282797374
-989.72479 -201.39781 46.332085 4282598704
-993.25641 -198.40614 46.528263 4283984219
-991.30219 -198.85832 46.121552 4282666563
-989.73511 -199.36177 45.256592 4282729518
-993.44257 -196.2059 46.920403 4283852628
-991.34491 -196.25514 46.667366 4282533693
-993.43506 -193.68547 46.711205 4283261002
-991.38324 -193.84344 46.216835 4282204213
-993.66571 -191.23482 46.36676 4282931273
-991.70087 -191.33014 45.611946 4281875503
-1015.8171 -188.68169 45.70969 4285237107
-995.17841 -188.78827 46.64679 4283918174
-993.71216 -188.74947 46.335999 4282272826
-991.91345 -188.75731 46.034172 4281874215
-1015.9396 -186.27306 45.744518 4285107831
-1014.197 -186.21118 45.751221 4285304183
-995.37457 -186.06976 46.434757 4283655251
-993.75641 -186.17577 46.280243 4281548325
-992.15564 -186.36559 46.004986 4281545757
-1015.9617 -184.68629 45.533295 4287015833
-995.60938 -183.61031 46.057861 4283194446
-993.76215 -183.65848 45.490322 4280956193
-992.3421 -184.56345 45.14164 4281610502
-995.76569 -181.10745 46.479767 4282602304
-993.83063 -181.22615 46.105438 4280430093
-1023.7136 -177.8532 46.348442 4285171828
-1021.4007 -177.75597 46.059078 4285173112
-1018.5624 -177.65298 45.958466 4285567606
-1016.3289 -178.15796 45.618988 4286885007
-1014.9533 -177.81004 45.418884 4286426518
-995.89441 -178.82024 46.13343 4281944373
-993.99054 -178.85219 45.92202 4279969810
-1025.0804 -175.80223 46.548203 4284975990
-1023.7442 -176.30133 46.433338 4285237878
-1021.1683 -176.26746 46.420948 4285304440
-1018.6345 -176.24681 46.475975 4285567612
-1016.3425 -176.21973 46.335609 4285898370
-1013.8868 -176.01555 46.840218 4286293643
-1011.1666 -175.85681 47.153137 4286491276
-1008.8881 -175.52437 47.116116 4286425999
-1007.1026 -175.35332 47.127178 4286360463
-995.89325 -176.21268 46.459057 4281352240
-994.20123 -176.39482 45.875488 4279641619
-1025.2023 -173.60855 46.53997 4284909938
-1023.7641 -173.75029 46.489826 4285238135
-1021.2758 -173.69627 46.534634 4285304696
-1018.7244 -173.8158 46.52813 4285567867
-1016.2927 -173.78574 46.737263 4285569150
-1013.73 -173.75185 47.166996 4286094980
-1011.251 -173.77917 46.926117 4286161799
-1008.7599 -173.76259 47.009048 4286227595
-1006.3349 -173.52432 47.055794 4286162315
-1003.6435 -173.52208 46.880295 4286227850
-1001.3513 -173.70195 46.63121 4286293900
-998.69336 -173.37488 47.190639 4286095239
-996.24274 -173.75327 46.954319 4285040753
-994.06165 -173.87067 46.604099 4284184933
-991.02649 -172.7908 47.073723 4284910453
-1025.4354 -171.21385 46.487457 4285041782
-1023.8088 -171.25754 46.292099 4285303925
-1021.2266 -171.26393 46.508896 4285369973
-1018.7469 -171.14388 46.929756 4285305465
-1016.2817 -171.17915 47.085808 4285568380
-1013.7495 -171.297 47.101311 4285700223
-1011.2858 -171.21156 46.963345 4285766271
-1008.718 -171.27777 46.866135 4285832579
-1006.2607 -171.29672 46.668083 4285963652
-1003.7668 -171.25845 46.768826 4285898115
-1001.2152 -171.23994 47.215103 4285897859
-998.74652 -171.33714 47.425552 4285766017
-996.29694 -171.05809 47.255947 4285370487
-993.89825 -171.17592 47.242455 4285106803
-991.08356 -171.37256 47.231262 4284910195
-988.76038 -170.51961 46.988182 4284974964
-986.55988 -170.95433 47.289398 4285303157
-1025.7639 -168.72427 46.264793 4285303669
-1023.7727 -168.68069 46.527668 4285172596
-1021.2071 -168.71524 46.825809 4285304441
-1018.7674 -168.70872 46.39793 4285501560
-1016.2247 -168.81702 46.319138 4285502074
-1013.763 -168.76149 46.402683 4285568122
-1011.2552 -168.71138 46.345325 4285699708
-1008.703 -168.77019 46.349434 4285699964
-1006.3024 -168.7509 46.442051 4285700220
-1003.7134 -168.76196 46.809223 4285568894
-1001.2006 -168.79034 46.85582 4285568123
-998.7345 -168.71585 46.82737 4285370743
-996.22418 -168.86043 46.814987 4285173109
-993.78333 -168.72533 46.773617 4285106804
-991.19922 -168.67509 46.572048 4284975216
-988.82977 -168.84668 46.36451 4284974963
-986.68103 -168.93538 46.706902 4285040499
-1025.8937 -166.16006 46.174152 4285303414
-1023.6874 -166.28093 46.130741 4285303672
-1021.3214 -166.2984 46.130142 4285238389
-1018.744 -166.27269 46.126945 4285304696
-1016.2115 -166.25195 46.244053 4285238905
-1013.7592 -166.32722 45.967014 4285370233
-1011.1808 -166.29807 46.085857 4285436541
-1008.771 -166.25795 46.533123 4285305466
-1006.2321 -166.24393 46.857933 4285436536
-1003.679 -166.33043 46.77586 4285371001
-1001.3681 -166.3116 46.613216 4285304695
-998.77606 -166.22865 46.683403 4285238646
-996.23669 -166.36815 46.763588 4285303925
-993.73444 -166.31313 46.560825 4285106804
-991.22119 -166.26202 46.849495 4285237620
-988.88165 -166.33344 47.140694 4285041009
-986.87708 -166.31285 47.23484 4285172084
-1025.986 -163.67702 46.558388 4285106804
-1023.6455 -163.69173 46.799618 4285238135
-1021.2525 -163.58044 46.559525 4285303926
-1018.7784 -163.7363 46.435425 4285369719
-1016.2502 -163.70216 46.546551 4285304184
-1013.8697 -163.72037 46.930313 4285173366
-1011.4721 -164.10078 47.011433 4285239417
-1008.4943 -163.44077 47.117893 4285369975
-1006.2424 -163.69508 47.015873 4285239416
-1003.6912 -163.70718 47.004776 4285238645
-1001.2968 -163.56042 47.155113 4285107575
-998.81958 -163.64345 47.129318 4285041526
-996.28461 -163.69171 47.11422 4285106803
-993.85339 -163.65108 47.185081 4285041013
-991.24377 -163.74841 47.427158 4284975217
-988.52838 -163.2635 47.172047 4285040758
-986.97876 -163.75111 47.370457 4285434225
-1027.5465 -160.62581 45.6133 4285171830
-1026.2104 -161.2523 46.169895 4284975474
-1023.9128 -161.42978 46.134346 4285106806
-1021.2562 -161.24149 45.83828 4285238133
-1018.6814 -161.3215 46.119846 4285303924
-1016.2637 -161.26694 46.166264 4285238389
-1013.7201 -161.23552 46.300983 4285172596
-1011.2936 -161.2462 46.163807 4285238135
-1008.7296 -161.37514 46.111557 4285107317
-1006.1679 -161.23016 46.408756 4285303668
-1003.7949 -161.25702 46.230175 4285107059
-1001.1955 -161.43843 45.986267 4285041778
-998.74042 -161.30768 46.396 4285041268
-996.29266 -161.30167 46.66663 4285041010
-993.69226 -161.27696 46.767315 4284909683
-991.24939 -161.22563 46.596481 4284909684
-988.81635 -161.40173 46.299137 4284975221
-987.16071 -161.58975 46.361195 4285368688
-1027.7198 -158.61586 45.84639 4285106038
-1026.222 -158.84575 45.711308 4285106291
-1023.8011 -158.77914 45.916485 4285237620
-1021.2491 -158.71722 46.032982 4285237877
-1018.7649 -158.84927 46.056622 4285369205
-1016.232 -158.79689 46.032768 4285237876
-1013.7275 -158.75929 46.19342 4285172082
-1011.2824 -158.73312 46.267971 4285172340
-1008.8286 -158.74229 46.185623 4285106807
-1006.2595 -158.70409 46.171047 4285106546
-1003.7205 -158.75902 46.358471 4285172337
-1001.175 -158.72821 46.638489 4285041013
-998.77075 -158.69969 47.094055 4284909940
-996.21814 -158.68739 46.926014 4285040499
-993.77222 -158.7715 46.67535 4284843887
-991.24963 -158.76068 46.755932 4284909427
-988.60626 -158.68475 47.048656 4284909683
-987.33246 -158.97603 47.035919 4285105266
-1027.941 -156.18541 46.34428 4284844405
-1026.2579 -156.23026 46.216515 4285040754
-1023.6919 -156.0854 46.406368 4285106549
-1021.2045 -156.26292 46.112572 4285303158
-1018.7872 -156.31418 46.275768 4285237875
-1016.2589 -156.12981 46.378071 4285172085
-1013.7234 -156.2197 46.206825 4285106549
-1011.2568 -156.32417 46.104527 4285106548
-1008.6654 -156.32669 46.390259 4285041011
-1006.3024 -156.25905 46.556087 4285041008
-1003.718 -156.1544 46.879154 4284975219
-1001.2349 -156.15056 46.746616 4285040755
-998.74438 -156.34206 46.693466 4284909425
-996.19507 -156.35881 46.815018 4284909685
-993.74799 -156.21234 46.982498 4284974961
-991.23975 -156.2645 46.753826 4284974964
-988.85126 -156.38522 46.419338 4285106033
-1028.2 -153.78404 46.065613 4284974964
-1026.311 -153.73805 45.936268 4285040756
-1023.7806 -153.69952 45.93821 4285041013
-1021.2444 -153.72687 45.970928 4285041270
-1018.7461 -153.77179 45.882881 4285106548
-1016.2261 -153.83427 45.796963 4285106549
-1013.8552 -153.68463 46.149845 4285171830
-1011.2453 -153.70349 46.448936 4284975221
-1008.754 -153.7364 46.662273 4284975220
-1006.2413 -153.7086 46.424625 4285040498
-1003.7535 -153.82281 46.379326 4284974964
-1001.3082 -153.74924 46.427143 4285040755
-998.77368 -153.59683 46.915524 4285040501
-996.22467 -153.71631 46.771912 4284974707
-993.75732 -153.78357 46.339413 4284974963
-991.22589 -153.77628 46.659798 4284909429
-989.01831 -153.84982 46.667706 4284974964
-1028.4451 -151.24069 45.828625 4285106033
-1026.2456 -151.2514 45.709435 4285040755
-1023.7163 -151.19005 45.607616 4285172083
-1021.3041 -151.19931 45.785549 4285171826
-1018.7919 -151.23012 45.80513 4285237621
-1016.247 -151.30595 45.930157 4285172084
-1013.6887 -151.1933 46.183731 4285106293
-1011.2114 -151.25169 46.329681 4285040497
-1008.8383 -151.21239 46.38102 4285040756
-1006.2667 -151.2106 46.392582 4284844146
-1003.6821 -151.24283 46.099064 4284974959
-1001.213 -151.24272 45.78968 4284974704
-998.63727 -151.40164 45.804249 4284909426
-996.34918 -151.26254 46.331074 4285040496
-993.78625 -151.18376 46.510555 4284974965
-991.20105 -151.27567 47.060398 4284974958
-989.27527 -151.24301 46.583557 4285040756
-1028.7635 -148.94435 45.44619 4285106289
-1026.0776 -148.78583 45.339233 4285106548
-1023.7922 -148.6851 45.391212 4285041269
-1021.2162 -148.71173 45.685421 4285172085
-1018.6969 -148.74857 45.801083 4285106291
-1016.3025 -148.74057 45.765553 4285106290
-1013.7842 -148.8035 45.604221 4284974964
-1011.2694 -148.7831 45.499111 4284909684
-1008.7098 -148.76421 45.588543 4284909166
-1006.2404 -148.81296 45.72448 4284974961
-1003.9081 -148.8703 45.544617 4284974447
-1001.333 -148.69977 45.830215 4284974704
-998.69507 -148.69806 46.070679 4284778351
-996.20917 -148.75702 46.202099 4284909168
-993.71948 -148.8494 46.226353 4284909169
-991.35266 -148.89047 46.31712 4284909682
-989.51129 -148.89764 46.114933 4284974704
-1030.2302 -145.16626 46.454651 4285237622
-1028.6731 -146.08051 45.772923 4285040756
-1026.2004 -146.34727 45.648655 4285040756
-1023.8265 -146.25706 45.765411 4285171829
-1021.2958 -146.19038 45.701183 4285106547
-1018.7576 -146.25107 45.708595 4285106548
-1016.2162 -146.31119 45.678829 4285041011
-1013.68 -146.18286 45.86557 4285040498
-1011.3449 -146.3008 45.679295 4284974707
-1008.7724 -146.16476 46.043026 4284909427
-1006.2131 -146.15767 46.146973 4284909168
-1003.679 -146.1998 46.469761 4284909169
-1001.2074 -146.28893 46.489952 4284974962
-998.80786 -146.22626 46.765079 4284974962
-996.25977 -146.17633 46.678646 4284843632
-993.68817 -146.12279 46.919106 4284909426
-991.19257 -146.16745 46.855999 4284974959
-989.70203 -146.67038 46.902752 4285106031
-1030.386 -143.48033 46.427113 4285040498
-1028.8005 -143.67159 45.972462 4285040755
-1026.2793 -143.8015 45.961357 4285106292
-1023.6932 -143.74908 45.934067 4285237365
-1021.1785 -143.77834 45.819633 4285237875
-1018.7477 -143.71104 45.851948 4285237878
-1016.263 -143.76796 46.063232 4285237621
-1013.7164 -143.66644 46.330799 4285106037
-1011.3275 -143.72658 46.431732 4284974965
-1008.7978 -143.7188 46.759277 4284975218
-1006.2874 -143.65189 46.502205 4284974962
-1003.7612 -143.71829 46.527241 4285040498
-1001.2101 -143.61586 46.760353 4285040499
-998.75 -143.6003 46.839546 4285040500
-996.2663 -143.72314 46.598476 4284909425
-993.85065 -143.79051 46.388126 4284909170
-991.29291 -143.73889 46.36377 4285040498
-1030.5206 -141.45152 45.532822 4285172083
-1028.7209 -141.80653 45.368946 4285172081
-1026.3466 -141.69917 45.752728 4285106550
-1023.9458 -141.70097 45.650311 4285237877
-1021.1951 -141.39586 45.247463 4285172087
-1018.7401 -141.23755 45.346043 4285172339
-1016.1843 -141.42944 45.49509 4285041012
-1013.7878 -141.30606 45.664242 4285106035
-1011.254 -141.22404 45.78207 4285106292
-1008.7756 -141.36115 45.729904 4284974962
-1006.223 -141.34688 45.29224 4284909423
-1003.7427 -141.33145 45.416153 4284974704
-1001.3425 -141.24352 45.738991 4284975218
-998.71765 -141.33359 45.596062 4284974704
-996.24066 -141.24159 45.526028 4284909173
-993.75018 -141.16789 45.704517 4284974706
-991.36493 -141.23598 45.785915 4284975219
-1030.3315 -137.72125 45.246033 4285237887
-1028.5431 -137.90161 45.252937 4285238133
-1026.0916 -138.10428 45.242245 4285303922
-1023.6419 -138.62158 45.377972 4285172852
-1021.3006 -138.74896 45.504673 4285369208
-1018.7823 -138.70877 45.357437 4285172595
-1016.2364 -138.7803 45.398598 4285041266
-1013.726 -138.83946 45.416298 4285106805
-1011.1873 -138.80946 45.327068 4285041013
-1008.8242 -138.82857 45.415409 4285040756
-1006.2631 -138.69856 45.833012 4284844145
-1003.6984 -138.68776 45.645504 4284974961
-1001.179 -138.66859 45.854485 4284909425
-998.72882 -138.82237 45.89854 4284909684
-996.35248 -138.91156 45.997574 4284909428
-993.73914 -138.81067 46.184364 4284974961
-991.51697 -138.73793 46.330551 4285106034
-1030.7244 -136.91882 45.304234 4285172600
-1028.6504 -136.86417 45.480152 4285238651
-1026.2567 -136.53827 45.433811 4285238644
-1023.7458 -136.48453 45.493378 4285107316
-1021.1801 -136.27048 45.516644 4285238134
-1018.6779 -136.32954 45.46854 4285172853
-1016.3101 -136.20445 45.541843 4285107061
-1013.7092 -136.21075 45.816212 4285107061
-1011.249 -136.24651 45.359112 4285237877
-1008.7136 -136.14758 45.625702 4285041270
-1006.2057 -136.27861 45.803104 4285041011
-1003.8217 -136.26343 45.979347 4284975219
-1001.2781 -136.20335 46.504101 4284975219
-998.68756 -136.21922 46.476704 4285106035
-996.24823 -136.0862 46.272308 4285106291
-993.71521 -136.25111 46.258274 4285040500
-991.72498 -136.36763 46.362904 4285040754
-1018.5515 -134.95309 45.326099 4285172597
-1015.9706 -134.72493 45.223118 4285107576
-1013.7628 -134.4911 45.282024 4285172599
-1011.2491 -134.33035 45.142281 4284976245
-1008.8682 -133.99254 45.222618 4285041781
-1006.227 -133.72089 45.715401 4284975989
-1003.7089 -133.68175 45.996937 4285041781
-1001.2071 -133.9529 46.165825 4285041522
-998.76331 -133.8734 46.087406 4285041011
-996.28455 -133.80113 45.84668 4285172084
-993.70496 -133.80258 45.965046 4285106291
-991.95776 -133.96758 45.830418 4285106550
-1006.0676 -132.4393 45.466114 4284779894
-1003.6914 -132.23607 45.576187 4285107317
-1001.1186 -132.13235 45.798271 4285106804
-998.62878 -131.8065 45.831833 4285107063
-996.16571 -131.60098 45.774998 4285106803
-993.789 -131.35713 45.99934 4285041010
-992.18372 -131.3512 46.268764 4285237874
-990.6106 -210.72755 47.799702 4283721304
-991.15784 -208.69145 47.655807 4283786587
-991.53479 -206.44687 47.674297 4283787355
-992.63593 -201.78844 47.721783 4284115544
-992.0874 -200.86917 47.526745 4283655506
-992.68921 -199.16837 48.107712 4283721817
-992.18732 -199.7865 47.513062 4283458648
-993.51093 -195.90857 47.579266 4283525205
-993.16736 -194.21626 47.602585 4283392590
-996.90906 -178.67932 48.127098 4284183910
-1013.1552 -176.55925 48.569553 4286624149
-1011.3983 -176.51306 48.563702 4287412641
-1008.8265 -175.77184 48.112652 4286623123
-1006.1992 -175.36893 48.423916 4286755222
-1003.8112 -175.13077 48.55941 4287148694
-1002.3726 -175.03645 48.562683 4286822555
-996.96283 -176.23439 48.333107 4283398271
-1005.8545 -174.1035 47.626041 4286359691
-1004.1479 -174.41107 47.765137 4286491023
-1001.5865 -174.8166 48.160896 4287346845
-998.40057 -174.36084 48.399193 4287346593
-996.58099 -173.66852 48.243694 4285305725
-993.70447 -172.72055 47.704315 4285304182
-992.36017 -172.70564 47.609863 4284911474
-1016.0057 -170.86424 47.708038 4285633660
-1000.505 -170.62672 47.503479 4285963136
-998.81427 -171.03839 47.783791 4285700223
-996.08893 -171.62659 47.746731 4285370235
-993.35272 -171.58797 47.652538 4285237877
-991.25513 -171.14746 47.569668 4284975476
-988.70264 -171.3494 47.856354 4285106294
-1016.0354 -169.7282 47.679443 4285699191
-1002.2091 -169.82729 47.545013 4285635197
-998.83594 -169.50841 47.797607 4285699957
-992.77386 -169.69576 47.578125 4285237621
-991.76465 -169.66881 47.551556 4285040756
-988.17053 -165.29337 47.526215 4285040754
-987.49261 -165.48732 47.507202 4284451449
-1012.8245 -163.21346 47.631733 4285369973
-1011.1599 -163.28061 47.641438 4285369719
-1009.0538 -164.00523 47.525822 4285436026
-1000.8426 -163.50075 47.725239 4285238647
-998.68921 -163.89256 47.674965 4285107063
-992.58856 -163.59563 47.641785 4285171313
-991.22125 -163.69942 47.773426 4285040754
-988.88165 -163.93985 47.793648 4284909681
-1012.5142 -162.1938 47.599976 4285368698
-1010.8825 -162.2572 47.591846 4285303933
-991.27185 -162.17404 47.818512 4284910198
-999.1311 -158.06718 47.571247 4285106802
-999.14899 -157.39723 47.541321 4285106293
-996.10791 -137.54825 47.583344 4284713333
-994.93152 -137.5183 47.542542 4284908909
-996.12524 -136.8745 47.569927 4285040756
-994.94891 -136.84489 47.529217 4284778102
-1012.7656 -176.56755 51.282799 4288662703
-1011.2839 -176.56148 51.341839 4288860347
-1008.8364 -175.84492 51.191883 4288531121
-1006.1349 -175.56732 51.227894 4288335032
-1004.0211 -175.45293 51.408298 4288663478
-1001.8616 -175.46413 52.395672 4288925370
-1003.0265 -174.8774 51.29261 4288335026
-1001.2722 -174.83893 51.8321 4288860340
-997.75488 -174.38986 51.983955 4288266158
-997.23615 -173.94777 51.577534 4287801482
-996.24811 -182.88396 54.12616 4283855710
-1011.0922 -176.77122 53.121582 4288860092
-1008.6691 -176.18198 53.646732 4288729016
-1006.3871 -175.87299 54.101505 4288729016
-1003.8517 -175.58211 53.995644 4288728761
-1001.13 -175.44173 54.072891 4288859574
-998.93427 -175.03465 54.634594 4288792758
-1000.3937 -174.64812 53.254375 4288860595
-998.89886 -174.59129 53.526585 4288728248
-997.38129 -174.4695 53.322712 4287540636
-1008.7662 -176.50839 55.465714 4288794556
-1006.4264 -176.07837 55.79554 4288795061
-1003.3005 -175.65543 55.90239 4288794041
-1001.8937 -175.49638 56.098904 4288793781
-997.71686 -175.24294 55.731659 4288527528
-998.70398 -174.94991 56.291279 4288596148
-996.06903 -182.42455 59.353027 4284511332
-999.11078 -175.16997 58.517883 4288531639
-998.79834 -174.86932 58.188862 4288596661
-1009.0368 -176.93327 62.170654 4289121977
-1005.4126 -176.74321 61.742775 4288662710
-1003.7601 -176.35985 61.812901 4288793270
-1002.0165 -175.95483 62.087067 4288924854
-993.55859 -195.41704 64.884094 4283789165
-1010.5391 -178.00795 64.604492 4286487684
-1009.5472 -177.97035 64.609184 4285896576
-1008.9467 -177.22813 63.778687 4288134565
-1005.6387 -177.02942 63.810261 4287147418
-1003.722 -176.66148 63.991299 4287278486
-1001.5482 -176.08455 63.82943 4288134564
-998.40424 -175.80804 64.52652 4286488200
-1000.8466 -215.43169 67.426559 4284842864
-999.89282 -215.4561 67.43222 4284778096
-1001.088 -214.54468 67.440361 4284842606
-999.91406 -214.63324 67.415993 4284778101
-1004.6203 -210.48009 67.110016 4284842607
-1005.6635 -208.95802 67.412872 4284974189
-1004.5131 -209.33406 67.12368 4284843118
-999.41669 -208.16431 67.397629 4284908394
-1006.8706 -206.74008 67.466476 4285236847
-994.52704 -206.22929 67.191162 4285105266
-1003.4655 -202.89885 67.193069 4284908399
-1002.1853 -202.96289 67.384491 4284712556
-997.74683 -202.68735 67.227478 4284974191
-996.39014 -202.87204 67.237091 4284843378
-994.77399 -202.53006 67.488678 4285106035
-1006.2884 -200.74454 67.424492 4285039726
-1003.7949 -201.49409 67.244629 4284842864
-1001.4051 -201.29642 67.323257 4284908913
-998.60504 -201.44824 67.157806 4284908398
-996.13287 -201.82535 67.278999 4285040243
-994.78247 -202.20088 67.482269 4285106033
-1007.9982 -197.76797 67.188988 4284908913
-1006.6932 -198.84259 67.434784 4284974192
-1002.8314 -197.7373 66.914856 4285039213
-1001.3192 -197.94655 67.100243 4284842862
-993.57306 -198.0594 67.343399 4284841320
-1008.2957 -196.24083 66.893738 4284908657
-1006.376 -196.01738 67.30957 4285039983
-1003.7064 -196.27232 66.94046 4284908655
-1001.2858 -196.58559 66.951729 4284974190
-999.08887 -196.28442 67.353256 4285105779
-995.86554 -195.91801 67.280235 4284974449
-994.25348 -196.24921 67.221283 4285104752
-1008.0773 -193.03035 67.361809 4284777587
-1006.1317 -193.77846 67.200142 4284974449
-1004.2308 -194.30664 67.275131 4284777581
-1002.3934 -194.89778 67.224854 4285237103
-998.01697 -192.93147 67.400917 4284843374
-996.77704 -193.63461 67.379669 4285039983
-994.21045 -194.85136 67.440834 4284842357
-1008.7722 -191.35258 66.886452 4284908915
-1006.3414 -191.36598 67.020622 4284974449
-1004.0256 -191.20575 67.200439 4284843118
-1000.9621 -190.86256 67.380295 4284908657
-998.67212 -191.24196 67.338692 4284974196
-996.29846 -191.00609 67.353737 4284908914
-1010.1599 -188.58897 66.802246 4285106550
-1008.9313 -188.8187 66.948105 4285106034
-1007.1454 -189.51089 67.217987 4285105777
-1003.3381 -188.63577 67.038261 4284909170
-1001.2272 -188.73546 67.243332 4284909168
-998.51715 -188.56583 67.329849 4285039987
-996.39154 -188.74312 66.962715 4285039984
-1010.3711 -186.43214 67.277672 4285105522
-1008.7742 -186.75537 67.260071 4285105776
-1006.2772 -185.97 67.230453 4284843635
-1003.8823 -186.5542 67.199303 4284909166
-1000.9791 -186.36026 67.336594 4284909426
-998.78381 -186.31148 67.201729 4284974706
-996.5166 -186.2579 67.157677 4285039982
-1010.5254 -183.3186 66.81469 4285040242
-1008.7308 -183.57481 66.726868 4285171826
-1006.2758 -183.70345 66.767883 4285040755
-1003.7313 -183.54694 66.917625 4285040242
-1001.1503 -183.78645 66.661522 4284974706
-998.72565 -183.75151 66.957794 4284974706
-996.89337 -183.61009 67.260574 4285040242
-1010.6024 -181.13933 66.552422 4285303669
-1008.6876 -181.26768 66.713829 4285106549
-1006.2257 -181.37662 66.54229 4284975474
-1003.7482 -181.23387 66.676666 4285040754
-1001.2822 -181.3029 67.031403 4285106289
-998.73523 -181.2914 67.182396 4285040499
-996.92932 -181.32216 67.182289 4285106034
-1010.7681 -178.74397 66.700127 4285238903
-1008.7053 -178.79384 66.657829 4285238902
-1006.2885 -178.63467 66.898758 4285172854
-1003.8003 -178.68434 67.355492 4285107059
-1001.3826 -178.67448 67.297165 4285172594
-998.52338 -178.46904 67.081398 4285237618
-997.1087 -178.3358 67.22242 4285237620
-1008.1834 -177.39407 65.684914 4285699963
-1006.0163 -177.37689 65.722626 4285436533
-1003.5715 -177.13466 66.267441 4285238902
-1001.2307 -176.67892 66.00576 4285567867
-998.8089 -176.57863 66.236351 4285369974
-997.23279 -176.56381 66.515007 4285040755
-1005.072 -218.07347 68.138138 4284645998
-1003.7903 -218.44131 68.028275 4284973935
-1001.2809 -218.403 68.246536 4284907887
-998.77118 -218.36859 67.986488 4284974193
-996.36328 -218.26947 68.362579 4285105265
-993.88281 -218.0305 68.980354 4285039987
-1005.2917 -216.14935 68.220131 4284711794
-1003.7841 -216.23813 68.454811 4284777070
-1001.3448 -216.36951 68.478996 4284908399
-998.6535 -216.20143 68.149567 4284974188
-996.17242 -216.17831 68.599014 4284843119
-993.70667 -216.18471 68.756027 4284843120
-1005.5462 -213.80026 67.993225 4284908398
-1003.67 -213.87534 68.101227 4284974194
-1001.3745 -213.493 67.85466 4284908401
-998.72778 -213.7532 68.028419 4284973936
-996.25171 -213.80803 68.357048 4285039726
-993.82458 -213.86992 67.995461 4284843119
-991.78735 -213.84323 68.162498 4284842863
-1005.7069 -211.11858 68.401512 4284908655
-1003.7 -211.33095 67.992058 4284908402
-1001.2942 -211.23972 67.96122 4284908654
-998.8064 -211.16296 68.590271 4284843118
-996.1991 -211.12186 68.453758 4284777328
-993.71808 -211.19128 68.573219 4284974447
-991.86566 -211.13554 68.694771 4285039215
-1006.0433 -208.56432 67.645233 4284908657
-1003.4783 -208.65445 67.873711 4284908399
-1001.1782 -208.80432 68.039146 4284908654
-998.66101 -208.87126 67.880882 4284908400
-996.31403 -208.77356 67.981026 4284974191
-993.74719 -208.73912 68.133507 4284843118
-992.22815 -208.99895 67.80925 4284842860
-1005.9643 -206.16418 67.772568 4285040241
-1003.7449 -206.15988 68.293205 4284908401
-1001.2538 -206.21443 68.224052 4284842862
-998.76672 -206.21254 67.881317 4284908914
-996.27155 -206.16164 68.274361 4284712049
-993.72467 -206.25713 67.8209 4284974194
-992.18237 -206.72842 67.929901 4284711274
-1007.7719 -203.06389 67.753937 4284842354
-1006.3052 -203.74051 67.911636 4284908401
-1003.7899 -203.92712 68.142654 4284974191
-1001.2302 -203.89763 67.761673 4284908397
-998.71191 -203.73851 67.907425 4284908656
-996.18085 -203.91838 67.663712 4284974191
-993.80939 -203.67719 68.026703 4284974445
-1007.9579 -201.11436 67.747223 4284843638
-1006.2961 -201.56274 67.800591 4284843378
-1003.4175 -200.24493 67.761192 4284645998
-1001.1896 -201.20235 67.718124 4284777583
-999.03674 -201.11862 67.645355 4284908654
-996.492 -200.88802 67.762894 4284973937
-993.88922 -201.15193 68.125313 4284974192
-1007.8595 -199.04726 67.986069 4284843376
-1005.9387 -198.6629 67.805183 4284843121
-1003.8168 -198.63762 68.060196 4284908910
-1001.2879 -199.07483 67.721107 4284777325
-998.72833 -198.73851 68.02932 4284974449
-996.21301 -198.67296 68.414925 4284908656
-994.18713 -198.78033 68.21273 4285105264
-1005.9042 -196.72073 67.739632 4284908912
-1004.2598 -197.11806 67.809349 4284843120
-1000.7491 -195.42804 67.580254 4284908650
-998.48877 -196.53314 67.713455 4285039729
-996.42383 -196.53082 67.848701 4284843120
-1008.5742 -193.80467 67.785416 4284843376
-1006.9974 -194.44315 67.732315 4285105521
-1003.5723 -193.53526 67.703339 4284974190
-1001.1903 -193.70432 68.056656 4284908654
-998.86829 -193.77159 67.884972 4284908399
-996.15942 -193.8717 67.738541 4284974448
-994.48041 -193.63382 68.121979 4285105265
-1005.1259 -190.44427 67.579834 4284843110
-1003.6475 -191.34395 67.578072 4284777322
-1001.468 -191.6076 67.817017 4284843122
-999.14319 -192.40018 67.591827 4284974702
-995.74414 -192.13379 67.844048 4284909169
-994.86261 -191.67274 68.020935 4285105522
-1007.7533 -188.10574 67.628296 4285040240
-1006.1551 -188.55168 67.725639 4285040243
-1004.309 -189.17604 67.774933 4284843122
-999.12537 -189.03099 67.521698 4285039729
-1010.3927 -185.34183 67.651573 4285236340
-1008.6024 -185.97302 67.62838 4285040496
-1006.1232 -186.97411 67.589218 4284909427
-1003.4794 -185.71512 67.708237 4285040753
-1001.5242 -186.00038 67.663826 4285040494
-999.59943 -187.47157 67.505615 4285237110
-1010.452 -184.48642 67.643387 4285236851
-1009.1691 -184.38377 67.652962 4284974960
-1005.4856 -184.77875 67.595886 4285171314
-1003.9107 -184.44289 67.776543 4285105523
-1001.8842 -184.52739 67.812057 4285105781
-996.20636 -184.32158 67.832512 4285106285
-997.13507 -180.23872 67.748657 4284843887
-1010.3529 -178.98328 67.635742 4285172850
-1000.8198 -178.83815 67.901047 4285106802
-999.27643 -179.15855 67.821953 4284778864
-996.97626 -178.94255 67.726265 4285237104
-1002.1472 -177.42171 67.731079 4285434994
