# .PCD v0.7 - Point Cloud Data file format
VERSION 0.7
FIELDS x y z rgba
SIZE 4 4 4 4
TYPE F F F U
COUNT 1 1 1 1
WIDTH 1091
HEIGHT 1
VIEWPOINT 0 0 0 1 0 0 0
POINTS 1091
DATA ascii
-1000.6321 67.021759 4.4085288 4285886572
-999.74805 66.902946 4.4634399 4285755747
-995.16125 66.073914 4.2282715 4285229150
-1020.6082 69.942986 4.1716514 4286349434
-1018.9054 69.946953 4.4003782 4286217599
-1016.3588 69.734665 4.4998345 4286742913
-1013.7878 69.484955 3.5003357 4286283392
-1011.0753 69.017967 3.8924236 4286283133
-1008.6478 69.197113 3.3446808 4285888119
-1006.1125 68.337212 3.7438133 4285756783
-1003.6446 68.19046 3.2732017 4285887601
-1001.878 68.106262 3.0430195 4285886826
-1038.3832 71.077499 3.5497804 4285690732
-1032.9802 72.115921 4.4718323 4285822065
-1030.563 72.153481 3.7072144 4285953140
-1028.6631 71.98996 3.9404025 4286150774
-1026.2534 71.54113 3.751363 4286151031
-1023.7943 71.029182 4.0691338 4286282615
-1021.64 70.712341 3.4732163 4286019703
-1018.8857 70.282585 3.5841167 4286151804
-1017.2838 70.175499 3.8355713 4286807940
-1033.6401 72.811859 3.831604 4285493100
-995.05457 64.935478 7.1786499 4285097829
-993.44659 64.834137 6.8793154 4285163111
-1010.2347 67.299706 6.3187256 4286546553
-1008.5128 67.150528 6.6072125 4286677120
-1006.4012 67.015594 6.3577881 4285953911
-1003.5581 66.408806 7.1962714 4286215281
-1001.3757 66.254799 6.5076661 4285756267
-999.65662 66.119286 6.7416382 4285690992
-995.09631 65.478081 6.1194458 4285163871
-993.88989 65.458694 5.8455868 4285228384
-1025.0223 69.662498 6.8855286 4286348415
-1023.7783 69.524139 6.8631549 4286545797
-1021.1742 69.496475 6.4964824 4286611582
-1018.5439 69.272408 6.5835652 4286677378
-1016.2394 68.887962 6.4807696 4286808967
-1013.7125 68.555794 6.1951294 4286480512
-1011.6597 68.097145 6.3238525 4286677119
-1009.9196 67.733337 5.7243042 4286479996
-1006.9452 67.829811 5.4501953 4286084984
-1035.9758 72.02478 6.9381652 4285560176
-1033.8154 71.669411 6.4753442 4285624940
-1028.0458 70.786392 6.4410129 4286347641
-1026.3385 70.532021 6.5443931 4286216567
-1023.8668 70.372429 5.9004006 4286348159
-1036.1594 72.680351 5.2939453 4285887086
-997.35577 33.466652 9.2334595 4283254853
-996.76349 36.993217 8.5823364 4283516998
-996.61047 38.557011 9.179718 4283386185
-995.81067 42.358665 9.9159546 4283387206
-995.54053 44.02161 8.552002 4283845183
-994.91254 47.813087 9.4196167 4283320644
-1040.6202 64.301704 9.396656 4286552963
-1039.6981 64.538322 9.5732117 4286227337
-1001.3454 64.812172 9.4783936 4285822060
-998.67456 64.546829 9.4130974 4285953901
-996.25696 64.18988 8.9117708 4285623915
-993.90417 64.114708 8.7245827 4285228387
-1040.8892 65.397415 8.6555662 4286352247
-1039.6458 65.225319 9.712677 4286490253
-1015.8109 67.36425 9.6572466 4287006344
-1013.8452 67.264191 8.9816895 4286612102
-1011.404 67.327217 7.694407 4286676611
-1008.753 66.374008 8.495573 4286808447
-1006.3002 66.306625 8.3293457 4286085239
-1003.85 65.71244 8.820611 4286084211
-1001.5472 65.48436 8.4870157 4285821292
-999.60156 65.278915 7.8195801 4285953384
-1031.3175 69.724388 9.5193119 4285691505
-1028.4796 69.522697 9.1341248 4286413942
-1026.129 69.383675 8.8042908 4286282874
-1023.5202 68.931732 8.6234322 4286742914
-1021.1385 68.641724 8.546772 4286676864
-1018.9079 68.413673 8.3072023 4286808964
-1016.3241 67.816414 8.4007349 4286940294
-1013.9662 67.786232 8.3389893 4286742395
-1036.0387 71.138123 8.9027348 4285888116
-1034.0142 70.707352 8.6828527 4285756528
-1031.5134 70.344749 8.6495438 4285952624
-1029.2582 70.277161 7.9415894 4286347634
-1027.4368 70.180679 7.8323975 4286282360
-1000.2946 26.333767 12.329346 4282795582
-999.61023 26.532633 12.211578 4282992451
-999.50305 28.063908 12.243952 4283057992
-998.28149 32.071239 12.119507 4283386951
-997.97205 33.48045 11.98703 4282533701
-998.1358 36.722885 11.988418 4282927942
-997.36475 36.980095 11.895569 4283517768
-998.01215 38.447777 11.911102 4283386945
-997.40009 38.374012 11.892578 4283255111
-996.06848 46.861923 12.434345 4283386440
-995.94904 48.707626 11.734111 4283123774
-995.62384 50.855747 11.787817 4282927428
-994.93134 51.633347 12.319885 4283319883
-993.92255 56.681065 11.951163 4283780165
-993.8927 58.632061 12.129024 4284043856
-1040.2385 62.08202 10.899617 4286621322
-1039.5851 61.637924 11.674605 4286096009
-995.54889 62.42067 12.452698 4285755238
-993.90955 61.403584 11.690683 4285097570
-1040.3992 63.330132 10.398211 4286620556
-1039.1536 63.645145 10.870475 4286226826
-1005.472 64.812332 11.688623 4286217333
-1003.5734 64.632248 11.321174 4285953906
-1001.6683 64.381386 11.185756 4285822318
-998.41711 63.66618 10.869404 4286019183
-995.25482 63.057339 11.017354 4285492067
-994.11896 62.979519 10.675126 4285294437
-1040.2758 65.897385 10.860942 4286553733
-1039.0243 66.403427 10.91355 4286293130
-1017.6927 67.100723 11.517407 4286940550
-1016.3942 66.93367 11.353305 4287071876
-1013.8726 66.846207 10.876831 4287071619
-1011.2832 66.45443 11.232517 4286677633
-1009.3962 65.694496 11.503271 4286611840
-1005.9468 65.363556 11.497857 4286150773
-1004.7463 65.24324 10.838074 4285889141
-1038.3569 67.534996 11.290344 4287345044
-1035.6318 69.979172 11.063049 4286150518
-1034.9338 69.996704 11.038879 4285822578
-1031.65 69.255211 11.013469 4285888884
-1029.1119 69.067909 10.497447 4286676603
-1026.5558 68.843643 10.214648 4286545531
-1021.6515 67.96875 10.492121 4286808191
-1019.1628 67.716217 10.447205 4286873986
-1036.1268 70.333939 10.790975 4286085492
-1034.7411 70.30291 10.568359 4285757042
-1000.775 21.149446 13.578759 4283057987
-1000.5049 23.462288 13.639207 4283057989
-999.79364 23.979809 13.020472 4282992199
-1000.3524 25.36026 12.998179 4282861125
-999.83344 25.378485 12.881328 4282730560
-1044.85 28.638037 13.874776 4284118373
-999.36908 29.349592 13.066675 4283189057
-1044.4124 31.125355 13.955994 4284184930
-999.02344 31.214048 13.055161 4283320649
-998.56891 33.858624 12.736992 4282992709
-998.17719 35.525387 12.664571 4283124037
-997.92749 39.699596 12.858826 4283189581
-997.41132 39.721245 12.650513 4282730061
-997.81671 40.964024 13.252037 4283059270
-997.08502 41.510647 13.423013 4282993228
-996.7724 43.846157 12.969245 4283189318
-996.59479 45.906544 12.939349 4282862154
-995.55554 52.103222 12.880005 4282796609
-994.92456 52.187805 13.093353 4283517263
-995.38293 53.536579 13.153063 4283190077
-994.78345 53.942795 13.014751 4283320647
-995.11322 55.781647 12.693222 4283190594
-994.51434 56.14455 12.62187 4283452482
-1038.9606 59.640221 14.665039 4286095754
-994.47186 58.549049 12.570691 4283519564
-1040.3019 61.633892 13.732717 4286424972
-1039.1345 61.24667 13.392463 4286029961
-995.52344 62.110256 13.09967 4285821556
-994.66418 60.598042 12.528894 4286156417
-1047.0944 63.227493 14.428894 4286346873
-1043.5742 62.629021 14.605835 4286019435
-1038.5087 63.121609 13.677795 4286161294
-1010.2007 64.882553 13.805756 4286481283
-1006.6886 64.250259 14.118347 4286413695
-1004.5411 64.229836 13.326904 4286283131
-1001.4496 63.504456 14.05249 4286350467
-1037.9031 66.333847 13.477631 4286292874
-1017.9386 66.345932 13.156128 4286809475
-1016.1802 65.97509 13.257507 4286876553
-1036.5099 69.847832 13.399292 4286086004
-1028.1228 68.203354 12.884216 4286809482
-1036.5333 70.072823 13.151855 4285954162
-1002.0414 20.506657 16.02121 4283783492
-1001.4059 24.292183 17.024414 4283719505
-1044.7034 26.929289 15.84729 4284446564
-1001.126 25.912621 16.250122 4283785823
-1044.3657 29.029396 16.328125 4284315495
-1000.5128 29.054489 16.162964 4283129960
-1043.7346 32.26516 16.475159 4284054370
-1043.8104 32.735863 15.685852 4284119906
-999.56543 33.537594 16.696777 4284178780
-999.23859 36.792919 16.443628 4284049756
-998.77032 38.702221 16.660849 4283916631
-998.35107 40.84137 16.991135 4283916369
-997.80908 43.934071 16.448792 4283720030
-997.76715 45.357838 17.106903 4283919987
-997.17383 48.150707 16.080566 4283788138
-996.5755 51.382393 15.564819 4283788130
-995.60834 56.436779 17.460388 4284377936
-1045.4827 62.338707 16.764954 4286216562
-1043.0775 61.971649 16.250906 4285822826
-1040.34 61.370522 15.421326 4286359951
-1038.6334 61.082825 16.390808 4286161546
-998.8822 62.224586 17.225464 4288196518
-1048.3645 62.768604 16.449015 4285888879
-1046.797 62.761402 16.165161 4286347120
-1038.007 63.858124 16.354309 4286030217
-1007.1422 63.924118 15.62973 4286745233
-1037.5693 65.498093 16.532837 4286553483
-1037.2668 67.243225 16.490631 4286491278
-1036.5673 68.850304 17.07489 4288330928
-1028.4141 67.638405 16.317261 4288129437
-1002.2442 19.655296 19.446228 4283064930
-1002.0934 20.707115 19.555664 4283851869
-1041.2385 23.643852 18.943298 4284315756
-1039.0554 22.947819 19.989838 4284316524
-1001.6476 23.659058 19.566376 4283656549
-1044.0645 27.18219 19.437195 4284315493
-1001.0717 26.670559 18.374115 4283787109
-1044.1694 28.205498 18.46402 4284118624
-1000.4468 29.628853 18.544312 4283656039
-1043.6871 31.16427 18.433264 4284316261
-1000.4322 30.091721 19.322876 4283657561
-999.67377 33.689518 18.801138 4284114787
-999.52277 35.642025 19.630005 4284576874
-998.93439 38.745403 18.818949 4284313694
-998.34741 42.150753 18.17041 4284248426
-998.03833 43.208664 17.815247 4283852136
-997.7605 45.855679 17.739746 4284446841
-996.51758 52.121189 18.228516 4283920497
-996.22021 53.302334 17.546753 4284640337
-995.77472 56.09967 19.474588 4284379756
-1038.2902 59.693111 18.961151 4286095756
-995.5766 57.54945 19.6297 4285494627
-994.95966 59.914265 19.069336 4284772700
-1048.1063 62.184795 18.612549 4286151535
-1046.4252 62.050587 18.488935 4286479218
-1042.968 61.44054 18.3214 4285823333
-1042.4901 61.140347 18.992615 4285626210
-1037.9673 61.066799 19.081711 4286357379
-1000.2456 62.218765 17.957886 4288396203
-998.66199 61.948425 18.517822 4288396720
-994.95233 60.227673 19.637207 4284842367
-1037.7123 63.7113 18.708395 4286161288
-1037.3824 64.522354 18.738251 4286160778
-1012.0056 64.009995 19.582458 4287140227
-1036.9895 66.493927 19.067982 4286227341
-1028.614 67.427032 19.444864 4288659633
-1025.991 66.692932 18.580688 4287006336
-1023.4544 66.63546 18.418253 4288196786
-1018.4836 65.764481 19.06897 4288128917
-1016.5308 65.21637 19.719391 4287800217
-1036.7836 67.512642 18.427185 4286886547
-1029.5123 67.695221 18.175598 4288460471
-1038.1575 22.455116 20.227112 4284510805
-1035.6616 22.405788 22.298492 4284512621
-1034.5529 22.43071 22.080994 4285171051
-1002.0999 21.180738 21.311441 4283984230
-1040.3069 23.600292 21.055042 4284513389
-1038.6577 23.236609 20.73991 4284513643
-1036.5532 22.843252 21.596226 4284579432
-1034.5618 22.776154 22.073792 4285039724
-1001.6144 24.533047 21.127411 4283855723
-1043.9725 26.690559 20.408356 4284774760
-1001.3547 25.612061 21.087595 4284837982
-1043.6367 29.114676 20.983856 4284119137
-1043.3818 30.623779 21.368652 4284381031
-1020.083 32.095425 22.105204 4285566849
-1000.0414 31.53294 21.73822 4284704864
-1020.1053 32.96043 22.087433 4285764484
-999.77551 33.902145 21.135223 4284773740
-1043.875 36.434959 21.924 4284315492
-999.49603 36.859623 21.388693 4284776815
-998.86432 39.328232 21.481262 4284249185
-1038.437 40.790291 22.405716 4284645746
-1035.2001 42.426384 22.261597 4285369714
-1034.3909 41.704258 22.269636 4285107312
-998.56049 40.609131 21.183929 4284313178
-1037.6659 44.774609 22.442139 4285040497
-1035.965 44.098335 22.296356 4285172344
-1033.3118 42.819321 22.189087 4285304949
-1025.8877 44.00576 22.452789 4285633911
-1021.074 44.978722 22.43103 4286091906
-997.96271 44.028393 20.953705 4284575839
-1037.34 45.305603 22.347198 4285434482
-1019.6953 45.013344 22.383362 4285633154
-1017.2825 45.073776 22.299866 4285699457
-997.3858 47.474651 20.040833 4284708196
-1031.4084 51.914238 22.413441 4285896062
-1031.4568 52.664558 22.480804 4285372027
-996.14789 54.149151 20.853882 4284837727
-1038.7582 56.900063 21.621437 4286094466
-995.85419 56.443466 21.074097 4284316288
-1038.2196 58.503361 21.490801 4286029963
-1045.7239 61.171471 21.354401 4286217332
-1042.746 60.841454 20.043518 4285822306
-1041.9817 60.673359 20.881327 4285953647
-1037.8274 60.237854 20.683533 4286292619
-1037.4124 61.683804 22.077637 4286226552
-1032.5485 61.941883 22.471619 4285832071
-1031.5754 61.65583 22.444324 4285766789
-998.69348 61.107315 22.396729 4288066455
-1037.053 63.52721 21.528198 4286161035
-1017.0609 64.384949 22.473999 4287871139
-1012.9827 64.049652 20.919739 4287602343
-1011.9408 63.721458 20.842285 4288457361
-1008.1274 63.128357 20.735107 4287537567
-1007.0117 62.502594 22.294128 4287280038
-1002.579 62.540993 20.824707 4288726191
-1036.9456 65.330963 20.223877 4286160524
-1033.0458 66.923721 22.040358 4287148185
-1031.6782 66.963448 21.815796 4287542430
-1028.4968 66.837723 21.374107 4288331946
-1026.8893 66.843048 20.927551 4288595126
-1024.0806 66.061348 21.272827 4288593583
-1018.8695 65.242203 21.33667 4288857007
-1005.9487 17.044987 24.746023 4284314469
-1004.1829 17.034151 24.381063 4285302645
-1013.5427 19.799726 24.715597 4285567613
-1011.1145 19.313828 24.47761 4285633150
-1008.8942 19.022738 24.538008 4285501564
-1006.0761 18.567142 24.602495 4285698430
-1004.3112 18.62866 24.608788 4285633410
-1036.0569 22.403458 22.803833 4283856747
-1033.0194 22.30743 24.142639 4284712564
-1031.0071 22.393167 24.552124 4285237107
-1028.5234 22.441414 24.28244 4285499764
-1026.174 22.230236 23.926846 4285237873
-1023.7672 21.964861 23.977863 4285303928
-1021.2584 21.653051 24.248764 4285501048
-1018.68 21.493244 24.476194 4285501307
-1016.1251 22.171925 24.524109 4285697912
-1014.4001 20.69581 24.674492 4285566847
-1010.7054 21.681837 24.9764 4285763447
-1009.3168 21.166218 24.926062 4285632119
-1006.0995 21.104258 24.946096 4285763711
-1003.2678 20.860891 24.884504 4285566840
-1002.4456 21.710121 24.838959 4285499253
-1041.1102 24.647387 23.407944 4284447340
-1038.6907 24.484177 23.49721 4284513898
-1036.1803 24.045109 23.500973 4284579692
-1033.7765 23.916029 24.067909 4284908657
-1031.4478 23.693401 24.51679 4285105776
-1028.6956 23.777924 24.120043 4285171570
-1026.3033 23.845215 24.129837 4285172088
-1023.8036 23.809265 24.411188 4285369464
-1021.2389 23.511477 24.337238 4285304441
-1018.7288 23.729269 24.118393 4285566843
-1016.2991 23.714394 23.903727 4285567101
-1013.7516 23.715286 24.017694 4285567357
-1011.1877 23.747517 24.132809 4285632635
-1008.734 23.815664 24.383022 4285632893
-1006.3536 24.012527 24.612013 4285567356
-1003.7544 24.350065 24.634537 4285567616
-1001.9733 24.789482 24.155191 4285500276
-1042.7463 26.343983 23.853827 4284250724
-1041.2555 26.173201 23.855085 4284512871
-1038.8337 26.226812 23.897972 4284447849
-1036.2437 26.304766 23.900906 4284645229
-1033.5959 26.263561 23.816536 4284842607
-1031.2378 26.261967 23.827856 4285040244
-1028.8606 26.248241 23.809702 4285106550
-1026.2906 26.312399 23.966841 4285303415
-1023.6564 26.247284 24.171618 4285304187
-1021.4123 26.773989 24.607119 4285566842
-1018.8867 25.985037 24.67996 4285370491
-1015.7234 25.707251 24.25625 4285567097
-1013.6444 25.934952 24.408924 4285632380
-1011.468 25.906708 24.423197 4285698176
-1008.8522 25.961781 24.6409 4285632896
-1006.3314 25.995211 24.639874 4285632895
-1003.8428 26.166557 24.538227 4285567357
-1001.9129 26.052877 24.485285 4285566845
-1042.9513 28.611124 23.569384 4284250469
-1041.3173 28.752298 23.861219 4284447337
-1038.7672 28.682999 23.852634 4284578667
-1036.1511 28.715593 23.981844 4284710767
-1033.7324 28.765835 23.906895 4284777584
-1031.2828 28.929079 24.118607 4284843636
-1028.8368 28.72616 24.154629 4285106549
-1026.2659 28.71596 24.208315 4285303929
-1023.6882 28.776369 24.054449 4285435257
-1021.2502 28.864466 24.359787 4285435515
-1018.9229 29.009369 24.57259 4285632635
-1016.0571 28.988667 24.576134 4285567102
-1013.9413 29.110149 24.580944 4285567356
-1011.3901 28.160831 24.835388 4285502078
-1008.9974 28.893911 24.817127 4285633150
-1006.6504 28.727228 24.837103 4285633921
-1004.1519 27.860579 24.769836 4285698170
-1042.8702 30.946917 23.03186 4284250469
-1041.2805 31.23278 23.991972 4284316262
-1038.713 31.207623 23.745405 4284382571
-1036.2433 31.221905 23.71323 4284711279
-1033.7891 31.189339 23.647259 4284843375
-1031.2769 31.282238 23.525768 4284974964
-1028.6895 31.176542 23.748852 4285237879
-1026.1995 31.226376 23.895382 4285238393
-1023.7675 31.331823 23.784849 4285566845
-1021.315 31.24362 23.894791 4285304700
-1018.7012 31.298195 24.046673 4285501822
-1016.1526 31.241131 24.04315 4285567099
-1013.8048 31.324308 24.212046 4285633149
-1011.322 31.407549 24.505001 4285501822
-1008.839 31.327997 24.187193 4285633152
-1006.3203 31.318457 24.468601 4285698685
-1003.7777 31.668249 24.403498 4285633152
-1001.8664 31.852493 24.327539 4285764736
-1041.0963 33.80632 24.195963 4284382056
-1038.7629 33.750175 23.932158 4284447850
-1036.2043 33.869576 24.043343 4284711534
-1033.796 33.692833 24.404392 4284908912
-1031.2147 33.731441 24.310452 4285171829
-1028.6592 33.752151 24.277582 4285369466
-1026.1776 33.774727 24.123463 4285435770
-1023.8697 33.867046 23.733751 4285435517
-1021.3094 33.69096 23.709311 4285501566
-1018.6464 33.747597 23.850502 4285567615
-1016.249 33.782478 23.521235 4285567614
-1013.7966 33.842079 23.880926 4285632893
-1011.2888 33.770947 23.867043 4285633153
-1008.698 33.616749 23.763035 4285698431
-1006.2302 33.711315 23.832714 4285633409
-1003.8082 33.71669 23.894018 4285633408
-1001.3112 33.82988 23.857082 4285698687
-1042.8461 36.329468 23.713728 4284381799
-1041.1152 36.279774 24.350571 4284513639
-1038.6748 36.325237 24.479202 4284448105
-1036.2913 36.400887 24.238501 4284711789
-1033.8461 36.283012 24.332096 4284909427
-1031.2177 36.15369 24.479849 4285172341
-1028.6616 36.307808 24.608854 4285500793
-1026.0598 36.308537 24.415253 4285435772
-1023.8033 36.441486 24.60273 4285698172
-1021.0792 36.106972 24.564846 4285698429
-1018.6675 36.106167 24.695921 4285698688
-1015.8889 35.968048 24.603342 4285764221
-1013.8276 36.303928 24.470942 4285633150
-1011.2292 36.230495 24.240269 4285698688
-1008.7631 36.000534 24.021069 4285764222
-1006.3125 36.126747 24.211203 4285698943
-1003.777 36.245277 23.815434 4285698939
-1001.1989 36.233509 23.946791 4285699198
-999.75854 37.000744 24.011801 4285697909
-1041.0646 38.675632 23.739286 4284448615
-1038.7781 38.744911 23.817513 4284514156
-1036.2883 38.809113 23.994118 4284777584
-1033.6565 38.784893 24.412003 4285041268
-1031.2102 38.69474 24.453947 4285303928
-1028.7352 38.650002 24.48163 4285501050
-1026.3265 38.710064 24.4035 4285501564
-1024.0248 38.97155 24.433928 4285698428
-1021.6643 38.849625 24.458952 4285567355
-1018.9619 38.998299 24.608402 4285567615
-1015.9537 38.639431 24.898804 4285633151
-1013.7969 38.109188 24.699554 4285764478
-1010.498 37.851387 24.750965 4285436802
-1009.7524 38.048492 24.58905 4285502335
-1005.7522 38.434433 24.818642 4285764478
-1003.7837 38.386093 24.875992 4285764480
-1001.2924 38.68903 24.852232 4285698943
-999.58508 39.5406 24.948742 4285502083
-1040.9359 41.213211 23.526253 4284579946
-1038.8365 41.335175 23.029898 4284646254
-1036.1537 41.15242 22.98852 4284909428
-1033.6102 41.178104 23.074324 4285303926
-1031.2751 41.238388 23.08761 4285435516
-1028.7874 41.240688 23.585526 4285436026
-1026.2469 41.244072 23.964064 4285436028
-1023.7615 41.277897 23.77943 4285501823
-1021.2479 41.29179 24.234354 4285633664
-1018.8167 41.308903 24.152109 4285698684
-1016.3945 41.513817 24.26895 4285699202
-1013.6979 41.755695 24.244772 4285830272
-1011.2934 42.042549 24.388329 4285567870
-1009.4001 41.840504 24.306147 4285764738
-1006.1469 41.797092 24.69297 4285764736
-1003.8773 41.321735 24.68396 4285698690
-1001.6194 41.142979 24.847868 4285699197
-999.29639 40.339981 24.921143 4285370751
-1040.64 43.72628 24.112122 4284514667
-1038.8019 43.787769 23.11285 4284712046
-1036.3054 43.651268 23.003754 4285041012
-1033.8539 43.841022 23.075573 4285370235
-1031.3442 43.671131 23.039375 4285633149
-1028.7419 43.762878 23.321129 4285633148
-1026.1809 43.748074 23.078299 4285633407
-1023.7427 43.80788 22.993589 4285698944
-1021.3223 43.809643 23.309055 4285698943
-1018.8264 43.807835 23.374529 4285764737
-1016.2292 43.749275 23.545349 4285699201
-1013.7651 43.821056 23.709997 4285568126
-1011.2556 43.760899 23.822643 4285764735
-1008.8351 43.811527 23.924009 4285699200
-1006.207 43.666641 23.998198 4285699201
-1003.7034 43.851536 24.05221 4285764480
-1001.3972 43.857853 24.154856 4285764482
-999.29401 44.280403 24.618359 4285633665
-1040.4095 46.090069 24.77018 4284318319
-1038.775 46.32803 24.265259 4284778096
-1036.1473 46.424057 24.216417 4285369973
-1033.7764 46.395653 24.185553 4285632891
-1031.2566 46.166122 24.090927 4285698684
-1028.6963 46.239334 23.860252 4285764993
-1026.1985 46.288498 23.911098 4285699200
-1023.791 46.350784 23.797199 4285764992
-1021.2819 46.410835 23.639803 4285699199
-1018.712 46.235394 23.334295 4285764992
-1016.1948 46.203876 23.435202 4285830273
-1013.7802 46.253143 23.894627 4285633663
-1011.334 46.352764 23.931944 4285764736
-1008.72 46.250496 23.794743 4285764992
-1006.2251 46.217106 23.80401 4285764736
-1003.7888 46.173092 23.723 4285830272
-1001.2908 46.326847 24.030966 4285896066
-999.05334 46.153225 23.641918 4285764736
-1040.0645 48.809551 24.74115 4284777837
-1038.751 48.658508 23.772589 4285041267
-1036.2715 48.777134 23.910595 4285436281
-1033.8082 48.835251 24.286655 4285633406
-1031.255 48.768101 24.326122 4285764733
-1028.7108 48.673321 24.247267 4285830530
-1026.2292 48.71595 24.371208 4285830786
-1023.8323 48.761551 24.102205 4285764735
-1021.3088 48.87719 24.242468 4285830271
-1018.7239 48.71843 24.275337 4285830529
-1016.2465 48.668034 24.165308 4285764990
-1013.8289 48.698475 24.137077 4285633665
-1011.2577 48.739132 23.859934 4285699456
-1008.68 48.796791 23.713398 4285699455
-1006.2421 48.801125 23.677433 4285699455
-1003.8357 48.75872 24.037083 4285830274
-1001.2749 48.783783 24.360195 4285699457
-999.06866 48.794682 24.476582 4285830272
-1040.0293 50.235126 24.900665 4284974446
-1038.7838 51.235081 23.283186 4285370234
-1036.3446 51.27739 22.916525 4285699455
-1033.7029 51.189217 23.123131 4285830526
-1031.168 51.253735 23.453186 4285765247
-1028.7272 51.260151 23.562244 4285830783
-1026.3461 51.264767 23.805092 4285896321
-1023.7725 51.21085 23.973162 4285830785
-1021.1938 51.20219 23.984682 4285830526
-1018.691 51.249699 24.019985 4285699202
-1016.2974 51.237377 24.159632 4285830528
-1013.8618 51.321568 24.304089 4285699200
-1011.2165 51.305359 24.666168 4285764993
-1008.7041 51.294514 24.609318 4285830528
-1006.4621 50.816879 24.233587 4285633921
-1003.8494 50.962154 24.03063 4285830787
-1001.1555 51.137974 24.020123 4285765251
-998.74799 51.134537 23.647047 4285830786
-997.32172 51.532784 23.959499 4285830016
-1038.538 53.803745 23.624172 4285831044
-1036.1821 53.756821 23.207018 4285831041
-1033.7041 53.628063 23.110508 4285896324
-1031.2495 53.742306 23.267241 4285765248
-1028.8372 53.768852 23.303411 4285633920
-1026.2483 53.781704 23.050251 4285699714
-1023.6802 53.728699 23.318933 4285699717
-1021.2348 53.776104 23.093868 4285830528
-1018.8449 53.73674 23.316479 4285765251
-1016.2636 53.808331 23.691624 4286027392
-1013.6671 53.78146 23.649496 4285764994
-1011.2007 53.774643 23.656555 4285699457
-1008.8169 53.789719 23.866398 4285699714
-1006.2918 53.822594 23.859915 4285831041
-1003.7942 53.964241 24.0835 4285896579
-1001.1642 53.955574 24.573416 4285896322
-999.14246 53.657467 24.425739 4285896320
-997.19348 52.901051 24.13999 4285698948
-1088.2509 56.292149 23.808847 4285567354
-1038.3802 56.11219 23.434843 4285897599
-1036.1602 56.291824 23.211786 4285831555
-1033.7072 56.255219 23.418425 4285896836
-1031.3103 56.305271 23.403913 4285831558
-1028.8344 56.336266 23.738249 4285765764
-1026.2089 56.256744 23.808208 4285765507
-1023.6917 56.342201 23.801214 4285831042
-1021.3138 56.378536 23.535456 4285896833
-1018.8682 56.269928 23.543045 4285896577
-1016.2574 56.168312 23.649384 4285896321
-1013.6993 56.250721 23.568224 4285765249
-1011.2942 56.323082 23.422203 4285765504
-1008.8479 56.324078 23.535208 4285831044
-1006.2501 56.150902 23.536959 4285962116
-1003.7151 56.200043 23.557745 4285765506
-1001.2786 56.325653 23.976545 4285962114
-998.79199 56.416691 23.948242 4285831045
-996.85962 56.531765 24.163757 4285699717
-1087.7147 59.137669 23.994385 4285567863
-1042.8162 59.93335 23.205719 4286085746
-1040.0437 59.336842 23.109314 4286490254
-1037.9442 58.441563 23.159096 4286095243
-1036.226 58.708149 23.115915 4285963399
-1033.8149 58.768867 23.025684 4286028677
-1031.2688 58.864582 23.053001 4285962628
-1028.6752 58.718552 23.25569 4285897092
-1026.209 58.739788 23.438616 4285831556
-1023.759 58.768585 23.676186 4285896836
-1021.3117 58.834915 23.785925 4285766019
-1018.6859 58.765392 23.743776 4285897350
-1016.1694 58.74358 23.679115 4285831556
-1013.7546 58.649689 23.651398 4285962882
-1011.3195 58.737667 23.576078 4285831812
-1008.7224 58.7477 23.637133 4285897090
-1006.1835 58.786865 24.23938 4285897090
-1003.7199 58.666901 24.350748 4285962372
-1001.3217 58.692711 24.455526 4285897093
-998.74786 58.758701 24.287737 4285831557
-996.58844 58.796387 24.186138 4286092932
-1036.2621 61.125767 22.93515 4286160518
-1033.8071 61.220772 22.854116 4285963399
-1031.1074 61.135689 23.043898 4285897604
-1028.6418 61.284641 23.21777 4285832070
-1026.272 61.241405 23.41605 4285897348
-1023.8383 61.16066 23.330444 4285897348
-1021.2354 61.23595 23.623684 4285831813
-1018.6503 61.293961 23.611534 4285897348
-1016.2397 61.324112 23.554985 4285897350
-1013.8253 61.235989 23.520405 4285897862
-1011.2797 61.238331 23.569937 4285897605
-1008.6626 61.16008 23.443579 4285897606
-1006.2714 61.242207 23.310953 4286226056
-1003.8953 61.06628 23.560431 4286489483
-1001.2537 60.815838 23.873047 4286489487
-999.01001 60.224445 24.414413 4286028936
-996.89185 60.171967 24.247864 4286422417
-1035.9276 63.710712 23.598581 4286095242
-1033.7177 63.701149 23.662018 4286029450
-1031.1451 63.735584 23.427156 4285963913
-1028.7296 63.793377 23.431273 4285963655
-1026.2732 63.765091 23.435362 4285963399
-1023.7383 63.742371 23.272562 4285963398
-1021.2235 63.504337 23.494411 4286028935
-1018.7441 63.458038 23.353659 4285963655
-1016.4504 63.254723 23.334389 4285964166
-1014.0219 63.192799 23.053888 4286292616
-1011.4141 62.801025 23.377937 4286161289
-1008.9166 62.90683 23.390518 4287279513
-1006.2253 62.724281 23.127857 4288199592
-1035.6359 65.932838 23.157614 4286030217
-1033.7421 65.799683 23.262604 4286226569
-1031.3208 65.599792 23.550423 4286160773
-1028.7175 65.59362 23.56996 4286161287
-1026.4175 65.694351 23.241064 4286753940
-1024.1191 65.747421 22.826721 4288265122
-1007.9973 17.268204 25.312988 4283588955
-1006.2706 17.229803 25.417633 4285168234
-1004.2032 17.023172 25.333609 4285171308
-1015.1321 19.806778 25.099304 4285501818
-1013.1121 19.685965 25.480738 4285502073
-1010.2714 18.235138 25.056885 4285172860
-1008.5934 18.382235 25.112289 4285369209
-1006.3608 18.703918 25.218412 4285632381
-1003.7753 18.874729 25.566912 4285632892
-1031.6193 22.444771 25.286215 4284909171
-1029.6837 22.489449 25.022156 4285499508
-1025.8734 21.865211 25.034485 4285435006
-1018.0615 21.25452 25.122448 4285698685
-1016.1732 21.116074 25.267241 4285567612
-1013.6644 21.343767 25.302086 4285566846
-1011.3098 21.335857 25.131458 4285632636
-1008.5892 21.274019 25.244648 4285698170
-1006.2322 21.324934 25.41201 4285567099
-1003.9763 21.371319 25.565325 4285632634
-1002.4449 22.212967 25.201355 4285500025
-1030.6193 23.911068 25.043444 4284909171
-1029.738 24.665691 25.007721 4285171319
-1020.9346 24.864748 25.259277 4285435263
-1018.7102 24.927338 25.003601 4285567357
-1008.5692 23.101124 25.125366 4285501564
-1006.0412 23.049389 25.319757 4285632894
-1003.8296 23.217251 25.320059 4285502083
-1002.368 23.703743 25.19121 4285501565
-1020.9403 25.943922 25.226625 4285435512
-1018.7147 26.39533 25.246132 4285501308
-1016.4851 26.533295 25.300184 4285501564
-1013.8295 26.764412 25.255629 4285698173
-1010.9493 26.853682 25.196642 4285501824
-1008.2854 27.095119 25.315849 4285633149
-1006.4207 27.098673 25.248993 4285764224
-1003.2045 27.237158 25.132141 4285501824
-1002.0287 27.037249 25.102339 4285632891
-1021.5459 28.129925 25.021118 4285632636
-1018.3748 28.079638 25.212427 4285763707
-1016.6378 28.405676 25.240412 4285632637
-1013.4454 28.551676 25.277363 4285632894
-1011.17 28.823717 25.435133 4285502077
-1008.4655 28.409403 25.360584 4285633150
-1006.2095 28.704004 25.219727 4285633408
-1003.6581 28.750267 25.152058 4285698686
-1001.8133 28.838245 25.183125 4285633404
-1041.8784 32.121933 25.062805 4284316775
-1012.8711 30.281555 25.580338 4285567612
-1011.0864 30.370859 25.560276 4285567872
-1007.7952 30.649578 25.776642 4285699199
-1005.4417 30.422995 25.224623 4285698429
-1003.6604 30.624559 25.149059 4285567872
-1001.3735 30.953531 25.316996 4285698177
-1040.9832 33.005943 25.013947 4284316779
-1028.2338 34.318348 25.253357 4285631614
-1026.6918 34.697945 25.252655 4285566073
-1043.7231 37.350239 26.556091 4284184931
-1042.4358 37.164513 25.37088 4284579176
-1028.6117 35.629314 25.238871 4285631097
-1026.7175 36.235668 25.443054 4285369721
-1023.8002 36.221581 25.240833 4285501565
-1021.3343 36.288876 25.113857 4285632639
-1018.6168 36.673496 25.148554 4285698689
-1016.6039 36.666576 25.256193 4285633150
-1014.3351 36.703331 25.306824 4285698432
-1011.6388 37.459023 25.199255 4285764481
-1008.3268 37.0256 25.108337 4285306241
-1005.6917 37.033848 25.014282 4285764477
-1044.6094 37.843121 26.398743 4283855452
-1042.1854 38.533939 25.89118 4284383336
-1023.393 38.425987 25.099152 4285632637
-1020.782 38.640018 25.461897 4285632894
-1018.0656 38.271282 25.185062 4285633664
-1016.3866 38.808502 25.66457 4285633153
-1013.8861 39.10141 25.716717 4285698942
-1011.4005 38.893703 25.572433 4285699199
-1008.6323 38.644238 25.387316 4285830271
-1006.5085 38.785599 25.235683 4285764477
-1003.6342 39.199127 25.286669 4285699201
-1000.414 39.126968 25.317726 4285699200
-999.76007 38.865269 25.387369 4285502330
-1041.8821 41.207359 26.061129 4284645226
-1022.8807 40.303139 25.006836 4285174401
-1020.6381 40.349518 25.073669 4285567862
-1015.7945 40.488663 25.54003 4285699462
-1013.7734 40.582165 25.644489 4285633405
-1011.1547 40.816353 25.564497 4285699198
-1008.6181 40.975239 25.781477 4285830531
-1006.3245 41.201721 25.536179 4285633664
-1003.7327 41.212261 25.580574 4285764479
-1000.7576 41.320385 25.571255 4285699198
-999.51703 41.520325 25.579439 4285764479
-1041.3064 43.727749 26.186756 4284711534
-1007.939 42.597801 25.359467 4285831806
-1006.5564 42.540222 25.476227 4285764489
-1003.6849 42.676773 25.315842 4285699457
-1000.452 42.975933 25.420105 4285764990
-999.39838 43.119358 25.447435 4285567868
-1040.7839 46.2677 26.748264 4284580460
-1012.8567 46.024277 25.064117 4286093181
-1040.4069 48.804295 26.554342 4284515436
-998.22302 48.987724 25.112537 4285699201
-1040.2985 50.60331 26.862965 4284580976
-1039.9207 51.610218 26.722742 4284712820
-1012.0134 50.660152 25.318787 4285764479
-1006.1784 51.883568 25.286167 4285961602
-1003.5298 51.826622 25.241972 4285961858
-1001.0225 51.98037 25.404419 4285830788
-1087.9259 54.799019 26.88916 4285173626
-1039.5834 53.885384 26.453131 4285699458
-1005.9995 52.93 25.252003 4285831042
-1003.3342 52.921318 25.255842 4285830786
-1001.1254 53.270397 25.496395 4285765247
-998.36304 53.924191 25.201912 4285830786
-997.08215 54.195835 25.248728 4285961346
-1087.8975 56.110992 25.585062 4285436538
-1039.4357 55.759747 26.023289 4285832321
-998.11053 55.098438 25.228048 4285830787
-997.01599 55.263813 25.177746 4285764994
-1087.2101 58.935101 26.49057 4285633143
-1040.2274 59.285992 26.647867 4286621325
-1039.8077 58.281586 25.824677 4286423690
-997.19458 59.427452 25.012726 4285700484
-1043.4664 38.19249 29.128517 4284250212
-1042.3756 39.101349 28.512564 4284448870
-1042.2029 41.110355 28.01004 4284448359
-1041.6614 43.663242 28.811779 4284580201
-1041.1526 46.07217 28.597315 4284580460
-1040.7996 48.561012 28.609894 4284646510
-1040.4084 51.303307 28.698311 4284646767
-1087.7913 54.341972 27.830627 4285370495
-1040.0619 52.793903 29.686768 4284778363
-1039.8602 53.932083 28.222778 4285502076
-1039.6213 56.17672 28.205027 4285832321
-1040.4594 58.932224 28.702158 4286749065
-1039.7936 58.161011 28.924967 4286489998
-1043.4565 39.421486 31.428879 4284249700
-1042.4515 39.548229 30.128235 4284710758
-1043.3994 40.339985 32.045612 4284119142
-1042.3051 41.209076 31.220076 4284185963
-1041.8595 43.79554 31.294708 4284448615
-1041.4482 46.052372 31.227776 4284514927
-1041.0729 49.003365 31.751869 4284448874
-1041.3685 50.885136 32.296593 4284382567
-1040.1758 54.209812 31.168467 4284844917
-1039.9952 54.568268 31.087769 4285370749
-1040.2917 56.119324 32.150337 4285766532
-1039.7839 56.335709 31.049805 4285766786
-1040.5887 58.407436 31.019009 4286947463
-1039.8418 57.82185 31.136374 4286424972
-1043.3784 41.414967 33.086906 4283987554
-1042.2661 42.250565 33.211517 4284251250
-1043.1241 43.660519 33.738029 4283855709
-1042.1593 43.942715 33.499027 4284250982
-1042.9329 46.089703 33.676224 4283921760
-1041.9106 46.355167 33.836792 4284382312
-1042.8551 48.493362 33.707745 4283921766
-1041.8896 48.698647 33.656101 4283922277
-1041.406 51.560921 32.887146 4284120171
-1040.9689 53.63575 33.363331 4284186212
-1041.0834 56.237656 33.19706 4285831553
-1039.9186 56.946602 32.805435 4286423436
-1041.0627 57.787994 33.712311 4287080084
-1044.7733 40.044182 35.293823 4284118880
-1043.9568 44.074089 36.017639 4283922533
-1043.828 45.272186 35.866882 4283464301
-1043.0568 49.191673 36.033295 4284184173
-1086.1906 52.009689 36.97229 4285829754
-1042.5066 51.829292 37.287048 4283792234
-1085.5146 54.773365 37.406982 4285632379
-1042.3014 53.117374 36.008972 4284184934
-1085.6228 55.412601 36.692627 4285436030
-1041.7131 56.627747 35.903393 4286621321
-1043.0627 57.737682 36.39801 4288660915
-1084.4485 62.072781 36.401917 4285634172
-1084.5471 62.720734 35.754456 4285634687
-1077.7227 63.821411 37.26712 4288594614
-1075.9028 63.702065 36.245998 4288595123
-1073.3625 63.279919 36.221291 4288725679
-1070.6774 62.730606 36.502502 4288660661
-1069.4761 62.796738 36.070618 4288660148
-1044.1377 42.257698 39.430115 4283987820
-1043.8954 44.11256 38.803528 4284578149
-1043.3518 46.991913 38.000397 4284447078
-1043.1898 48.511372 39.029491 4284709992
-1086.0187 51.57795 38.203949 4285698939
-1042.6465 50.437447 39.319153 4284251746
-1042.3601 52.345974 39.2323 4283792230
-1085.5413 53.613014 38.563721 4285632628
-1042.0681 53.716354 39.055115 4284250721
-1084.8911 56.286087 39.843262 4285370495
-1042.9055 57.139965 38.82489 4288266157
-1042.4856 57.055851 39.090698 4288659119
-1084.1584 61.162888 38.484894 4285764992
-1070.5962 62.290264 39.127399 4288660145
-1069.4515 62.175598 38.764046 4288529069
-1083.7023 62.758293 39.668945 4285831294
-1080.8273 63.85442 39.726196 4287871649
-1078.7567 63.670261 38.910446 4288265383
-1076.3342 63.296505 38.778461 4288397738
-1074.4821 63.038105 38.550751 4288791214
-1071.9963 62.647343 37.878418 4288790962
-1055.059 39.603001 41.790344 4285239678
-1054.4926 39.491081 42.364059 4285633150
-1051.2096 39.275616 42.029427 4285699456
-1048.304 38.671574 42.354973 4285764481
-1046.5237 38.169884 42.105091 4285764737
-1073.5914 42.126999 42.274334 4282471753
-1071.2125 41.903938 42.13488 4283787867
-1069.5946 41.868408 41.8601 4284644718
-1066.5671 41.862747 42.219517 4285502074
-1064.0122 41.466251 42.161766 4285698687
-1061.4271 41.277809 41.964252 4285633149
-1055.0471 40.305321 42.08551 4285698938
-1079.6953 44.72908 42.491882 4285763964
-1076.1022 44.510506 42.229965 4285567102
-1073.6061 43.784153 42.301304 4285501051
-1071.2335 43.841007 42.215893 4285567099
-1069.3328 43.936108 42.222885 4285632892
-1066.5703 44.952637 42.3647 4285698430
-1044.1073 42.925873 41.328228 4284645235
-1085.3563 45.73848 42.213318 4285370486
-1083.5522 46.729382 42.422337 4285632635
-1081.4487 46.75148 42.418617 4285697917
-1078.5562 46.327457 42.399258 4285698172
-1076.2019 47.46909 42.445679 4285698180
-1070.2361 45.424587 42.284393 4285828985
-1069.053 45.471169 42.258709 4285501819
-1066.0027 45.696888 42.152874 4285632891
-1062.6309 46.383923 42.26593 4285764993
-1062.2933 46.392399 42.254253 4285764736
-1056.6703 46.054337 42.483612 4285698935
-1053.1448 46.817791 42.347717 4285764736
-1045.3595 47.324638 42.456512 4285633150
-1043.5317 46.028908 40.660858 4284250989
-1083.7288 48.963982 42.124432 4285567101
-1081.3123 48.779041 42.301109 4285567100
-1078.7694 48.751827 42.331154 4285567100
-1076.2463 48.964249 42.367432 4285567102
-1073.8464 49.226036 42.328888 4285567359
-1070.7848 49.665688 42.215401 4285436279
-1069.7288 49.771011 42.177227 4285764229
-1045.3682 47.662239 42.449829 4285632895
-1043.2896 48.646942 41.274078 4285237108
-1085.2729 51.257721 41.234486 4285567101
-1083.725 51.222977 41.484657 4285436027
-1081.2247 51.193687 41.528671 4285567356
-1078.7644 51.199825 41.799961 4285567356
-1076.2396 51.259102 41.826115 4285567354
-1073.6924 51.245384 41.914337 4285567098
-1071.2538 51.325653 42.01733 4285698684
-1068.855 51.58696 42.010563 4285632892
-1066.36 51.852043 42.005005 4285502077
-1064.1211 51.891815 42.231388 4285436540
-1061.0177 52.193455 42.373302 4285633663
-1059.0732 52.207088 42.3647 4285699197
-1042.6396 50.683079 40.848713 4284251755
-1085.2976 53.23304 40.098206 4285567104
-1084.1102 52.959038 42.266243 4285436280
-1080.416 53.453426 42.425915 4285370490
-1078.8226 52.976322 42.215313 4285502076
-1076.1204 53.191296 41.888809 4285567357
-1073.6953 53.305359 41.846165 4285501818
-1071.3528 53.205456 41.857231 4285502077
-1068.7654 53.459793 41.930275 4285698687
-1066.2131 53.784813 41.781113 4285633662
-1063.7122 53.782349 41.769157 4285633662
-1061.2051 53.727882 41.799511 4285633665
-1058.8281 53.753941 41.768982 4285699456
-1056.3851 54.061638 41.990257 4285699453
-1053.8173 54.390114 41.974777 4285765505
-1051.3879 54.714855 42.10458 4285766018
-1049.6877 54.782616 42.243568 4285765760
-1044.8137 52.894997 42.49472 4285896061
-1042.2863 53.36063 41.026367 4284514929
-1083.579 56.540714 42.143814 4285567352
-1081.4115 56.562611 42.409763 4285567358
-1078.6191 56.891975 42.341755 4285436540
-1076.8701 56.999992 42.271179 4285764729
-1066.3962 55.290272 42.312988 4285568133
-1061.3004 55.394928 42.448345 4285765250
-1058.7179 55.400177 41.739647 4285634433
-1056.2013 55.492165 41.720421 4285700221
-1053.7799 55.823093 41.494434 4285700482
-1051.1377 56.177635 41.569462 4285897092
-1048.6653 56.138752 41.706154 4285963141
-1046.3639 56.21619 41.94828 4286160775
-1043.8961 56.352501 41.992912 4286555535
-1041.9872 56.207882 40.790283 4286027908
-1083.2225 58.766323 41.583157 4285567612
-1081.2528 58.793278 41.84869 4285633408
-1078.7887 58.76997 41.969242 4285633664
-1076.2026 58.727898 42.125977 4285633662
-1073.8055 59.192318 42.084728 4285699454
-1071.4841 59.225143 42.066265 4285634174
-1068.8752 59.561802 42.268742 4285765503
-1067.0079 59.786762 42.340046 4285830784
-1062.9369 59.727039 42.364624 4285570182
-1061.194 59.65675 42.272717 4286226828
-1058.651 59.384262 42.22514 4286818708
-1057.1923 59.874889 42.249573 4288791476
-1050.4934 57.794098 42.124043 4286753168
-1048.6791 57.904457 42.246078 4287739551
-1046.389 57.960003 42.123646 4288791215
-1043.7262 57.518093 41.992798 4288791729
-1083.1688 61.158882 41.228352 4285633917
-1081.2306 61.209362 41.436329 4285568894
-1078.686 61.249496 41.254833 4285699967
-1076.2722 61.214317 41.519176 4285896832
-1073.8542 61.165588 41.408562 4286093956
-1071.3036 61.117252 41.357635 4286423434
-1069.0149 60.870083 41.489021 4286488969
-1066.261 60.651001 42.080158 4286555277
-1063.7321 60.564098 42.211231 4287476122
-1061.6475 60.522995 42.206654 4288134309
-1058.9075 60.29784 42.138805 4288791726
-1057.2114 60.378376 42.176971 4288726198
-1082.938 63.232567 41.374081 4286160004
-1081.2876 63.200611 41.388634 4286357897
-1078.9155 62.944599 40.844238 4286751881
-1076.4089 62.821552 40.676487 4287213978
-1074.0171 62.898399 40.666237 4288331437
-1071.6981 62.78072 40.496338 4288922034
-1053.3169 39.520309 42.914146 4285633662
-1050.8998 39.624123 42.786175 4285895552
-1048.6959 39.331356 42.811932 4285698942
-1046.2286 39.2062 43.107155 4285698686
-1071.4183 41.9585 43.089184 4283589201
-1068.4299 42.050499 42.823326 4285566325
-1065.8555 42.183689 42.876003 4285502077
-1063.7552 41.95834 42.860394 4285698684
-1061.2432 41.819702 42.964256 4285633149
-1058.7332 41.779488 42.854195 4285567614
-1056.1967 41.847542 42.833878 4285567614
-1053.686 41.227039 42.86504 4285698685
-1051.2745 41.294361 42.825756 4285764220
-1048.8048 41.341511 43.049 4285698430
-1046.1593 41.188976 43.380501 4285633407
-1044.7371 41.682243 43.199471 4285501051
-1083.323 44.841442 42.769794 4285566846
-1081.104 44.608456 43.198875 4285632891
-1078.5328 44.484844 43.097027 4285501306
-1076.9658 44.357773 42.541748 4285501564
-1074.6566 43.5443 43.251881 4285501046
-1071.4824 42.902855 43.020836 4285567098
-1068.1976 43.625366 42.864384 4285633148
-1066.2546 43.763134 42.858875 4285632638
-1063.7627 43.781403 42.981899 4285698429
-1061.2646 43.707211 43.014622 4285567614
-1058.7743 43.798424 42.924873 4285632894
-1056.2496 43.719692 42.962158 4285632892
-1053.6768 43.754509 43.107513 4285829502
-1051.3085 43.841896 43.121258 4285632894
-1048.6876 43.882046 43.556797 4285698430
-1046.2223 43.663635 43.199333 4285698943
-1044.6108 43.787235 42.959442 4285632895
-1085.1506 46.278824 42.582336 4285239666
-1084.0079 45.708786 42.933857 4285435773
-1081.1006 45.726475 42.862083 4285501309
-1079.1031 46.121876 42.559441 4285697915
-1076.1088 46.214359 42.972965 4285501563
-1073.7355 46.306004 42.990871 4285501561
-1071.2667 46.422466 43.053787 4285501562
-1068.5616 46.537006 42.972477 4285501308
-1066.614 46.709038 42.876858 4285632892
-1063.8214 46.193382 42.814926 4285763965
-1061.1378 46.245255 42.917446 4285632894
-1058.7426 46.35899 43.06765 4285567615
-1056.2435 46.135857 42.867767 4285698685
-1053.7325 46.16283 42.84536 4285764478
-1051.2938 46.264404 42.790874 4285633148
-1048.7009 46.236534 42.956696 4285698944
-1046.3048 46.150715 43.078827 4285698685
-1044.3845 46.298996 43.062088 4285764223
-1085.0155 47.787689 42.585663 4285501563
-1083.9155 47.90239 42.52256 4285632124
-1081.2845 48.015976 42.607361 4285631864
-1076.1576 47.778961 42.873245 4285567357
-1073.6064 48.08218 42.869694 4285567359
-1071.2531 48.584267 42.843006 4285436026
-1068.6738 48.739334 42.979641 4285632892
-1066.1764 48.767879 43.072628 4285632890
-1063.6873 48.678093 43.052456 4285567612
-1061.2484 48.7752 43.065945 4285567356
-1058.7235 48.710339 43.114441 4285633407
-1056.1202 48.696819 43.156754 4285764478
-1053.8176 48.771214 43.286503 4285764479
-1051.2356 48.816483 43.336349 4285698685
-1048.7375 48.68293 43.419434 4285568128
-1046.2686 48.695007 43.295921 4285764735
-1044.131 48.869087 43.130295 4285698937
-1071.8148 50.076736 42.777588 4285436280
-1068.4464 50.497425 42.67532 4285698682
-1066.0791 50.718868 42.67675 4285502076
-1063.5286 50.919441 42.854805 4285698432
-1061.3668 51.030949 42.885082 4285633407
-1058.6527 51.026741 42.93158 4285567869
-1056.2413 51.273476 42.946198 4285633664
-1053.8566 51.315182 42.99081 4285633661
-1051.2622 51.18539 42.976891 4285830527
-1048.7506 51.256153 43.239971 4285830525
-1046.2959 51.275986 43.359138 4285764736
-1043.9501 51.218933 43.488159 4285764993
-1083.5302 54.07177 42.980156 4285501820
-1081.5093 54.006664 43.043522 4285567101
-1078.5763 54.323978 42.975372 4285501820
-1076.549 54.401405 42.83569 4285501818
-1073.7858 54.583485 42.773605 4285502076
-1071.1813 54.450581 42.864521 4285632891
-1068.7959 54.669086 42.809288 4285567869
-1067.183 54.90041 42.778931 4285568122
-1055.9077 53.020248 42.743061 4285568123
-1053.556 53.177929 42.831871 4285765244
-1051.1892 53.432362 42.963207 4285699457
-1048.7426 53.705753 43.091328 4285699713
-1046.2299 53.73888 43.053822 4285831041
-1043.7194 53.764374 43.004898 4285830528
-1042.4391 54.259846 42.968361 4285829758
-1083.4031 55.654919 42.572731 4285436024
-1080.9744 55.699471 42.897915 4285436032
-1078.8058 55.971375 42.95055 4285567613
-1076.183 56.196888 43.067951 4285633148
-1073.7117 56.204582 43.053562 4285633661
-1071.2618 56.2556 43.116829 4285699196
-1068.7733 56.228363 43.073269 4285698945
-1066.2554 56.257126 42.942245 4285699201
-1063.7985 56.335976 43.066273 4285699712
-1061.2646 56.519608 43.051006 4285765249
-1058.7028 56.722542 43.326412 4285831297
-1056.2861 56.773911 43.34885 4285831296
-1053.7336 57.140678 43.264107 4285897087
-1051.9562 57.197956 43.236004 4286093442
-1048.5897 57.45158 43.126179 4286358414
-1045.5955 56.311199 43.019886 4286620805
-1043.7805 55.763542 42.960567 4286291329
-1042.3048 55.5849 42.936005 4285764993
-1076.2335 57.735592 42.769878 4285698429
-1073.7072 58.13393 42.709053 4285633661
-1071.0592 58.38343 42.728851 4285699709
-1068.6691 58.367798 42.89563 4285699712
-1066.2001 58.633911 42.826111 4285699968
-1063.7753 58.667007 42.885498 4285766018
-1061.1991 58.636349 42.907688 4285897344
-1058.7366 58.553188 42.861603 4286226569
-1056.1439 58.727951 43.251823 4286818192
-1053.8284 58.646183 43.400291 4287147413
-1051.2809 57.913651 43.406555 4286620811
-1048.5702 57.975002 43.48653 4287739037
-1046.0337 57.873352 43.473614 4288528550
-1044.7455 57.676083 43.32851 4288987562
-1065.4524 60.011223 42.668915 4285831553
-1064.022 60.131187 42.608475 4286423176
-1061.1431 60.359341 43.064301 4288133278
-1058.943 60.253857 42.893524 4288594343
-1056.4305 60.285187 43.208191 4288661170
-1054.3774 60.0093 43.380859 4288726454
